NCOLS 117 
NROWS 117 
XLLCORNER 794599.107614635 
YLLCORNER 8931774.87460253 
CELLSIZE 30.8499999999996 
NODATA_value -2147483647 
1067.000000000000000 1070 1071 1069 1064 1055 1043 1029 1014 999 985 971 956 939 922 904 885 866 844 822 803 788 777 767 758 749 741 737 735 735 737 741 745 750 756 763 771 780 786 790 787 780 769 759 753 752 754 759 764 769 771 770 766 762 758 757 761 766 773 779 784 789 794 800 807 802 812 822 832 842 852 863 871 878 881 879 874 864 853 840 828 815 803 791 780 772 767 769 774 779 784 787 789 791 793 795 794 792 792 794 794 793 790 786 780 771 757 740 722 704 689 676 663 649 635 621 606
1061 1067 1071 1072 1070 1065 1056 1044 1030 1016 1001 985 968 950 931 911 890 870 849 826 807 792 781 773 765 759 754 751 749 748 750 753 757 762 769 777 786 794 799 799 793 783 772 762 757 757 761 767 774 781 784 783 780 775 772 773 777 784 791 798 804 808 812 818 823 830 824 834 845 856 866 876 885 891 893 890 881 869 855 841 827 813 798 784 772 761 749 749 752 757 761 764 765 767 768 769 768 768 769 772 774 777 778 778 776 771 763 749 732 714 697 681 666 651 636 620 604
1053 1063 1070 1074 1074 1071 1065 1055 1043 1029 1013 996 978 959 939 918 897 876 855 834 815 801 790 783 777 773 770 767 765 764 764 766 770 775 782 791 800 808 812 809 801 789 777 768 764 765 769 776 785 792 796 796 793 789 787 788 793 801 810 818 825 829 832 837 841 846 838 848 860 872 883 894 901 906 906 900 889 874 858 843 827 811 795 780 766 742 734 732 732 735 738 740 742 743 742 742 743 744 747 750 754 760 765 767 768 767 764 755 741 724 706 687 671 654 638 621 604
1043 1055 1065 1072 1076 1075 1071 1063 1052 1039 1023 1005 986 967 947 926 906 886 865 846 828 814 804 798 793 789 786 783 780 779 778 779 782 788 795 805 815 822 825 820 809 796 785 776 773 775 780 788 797 804 809 809 806 802 800 802 808 817 828 838 847 851 854 857 860 864 872 865 878 891 903 913 920 922 920 911 897 880 862 844 827 811 793 776 747 734 723 718 715 714 714 714 715 716 717 718 719 722 726 730 735 742 749 755 759 760 760 756 747 733 716 697 678 660 643 625 606
1032 1046 1058 1068 1074 1076 1073 1068 1059 1046 1031 1014 996 977 957 937 918 898 879 861 845 832 823 816 811 806 802 798 794 792 792 792 794 800 808 818 828 835 837 831 819 806 795 788 786 788 795 803 811 818 822 821 819 816 813 814 821 832 844 857 868 874 876 878 880 885 893 884 897 911 923 932 937 937 933 921 904 884 864 846 829 811 792 773 742 727 714 705 699 694 691 690 690 691 694 696 698 701 706 710 716 723 730 739 747 752 754 754 749 741 726 708 687 667 649 631 612
1019 1034 1049 1062 1071 1076 1075 1071 1063 1053 1039 1024 1006 987 968 950 931 913 895 878 863 851 842 835 829 822 816 811 807 804 804 804 806 811 820 830 839 846 847 841 829 817 806 800 800 804 810 818 826 832 835 834 832 828 826 827 834 846 861 875 886 894 898 900 903 908 915 925 917 930 940 947 951 949 943 929 910 888 867 848 831 814 794 755 738 721 707 694 684 676 671 669 669 671 674 676 678 682 686 691 696 703 712 722 733 741 747 749 748 744 734 717 696 675 657 639 621
1006 1022 1038 1054 1066 1074 1075 1072 1067 1058 1047 1033 1016 998 981 963 945 928 911 895 881 869 860 852 845 837 830 824 820 818 817 817 818 823 831 841 850 856 857 851 840 829 819 814 815 819 826 834 842 847 849 848 845 842 840 841 848 861 876 890 902 910 916 920 924 930 937 945 936 946 954 960 962 959 950 935 914 891 870 851 835 817 776 757 738 719 703 688 675 664 656 652 652 654 656 658 660 663 666 669 675 684 693 703 715 727 736 742 744 743 737 724 706 686 667 649 631
994 1010 1027 1043 1058 1068 1072 1071 1067 1060 1052 1040 1025 1009 993 976 958 941 924 910 897 885 874 866 858 850 843 838 835 834 833 832 833 837 844 853 861 867 868 862 852 841 832 828 829 834 841 849 857 862 864 863 861 857 856 857 863 876 890 903 915 925 932 938 944 951 958 964 953 961 968 972 972 968 957 939 918 895 874 855 839 801 780 761 741 722 703 687 672 659 648 641 639 639 640 640 640 641 644 648 655 664 675 685 697 710 723 733 738 739 737 729 716 697 678 659 641
985 999 1015 1031 1046 1058 1064 1065 1063 1058 1052 1043 1031 1018 1003 987 969 952 935 921 909 898 886 876 868 861 856 853 852 853 853 851 852 854 860 867 874 879 879 874 864 853 844 841 842 847 855 863 870 876 879 879 877 875 873 874 880 890 903 916 928 939 948 956 964 972 978 984 988 976 981 984 983 976 963 945 922 900 878 859 842 805 785 765 746 727 707 688 671 656 643 634 628 626 625 623 620 620 622 627 635 646 658 670 682 696 710 722 729 733 734 731 722 707 689 670 651
975 989 1003 1018 1032 1045 1053 1056 1056 1053 1048 1042 1033 1024 1011 995 978 960 944 929 918 907 896 885 877 871 868 868 870 872 874 874 873 874 878 883 889 892 891 885 875 865 856 853 855 860 867 875 882 888 893 894 894 892 891 893 897 906 918 929 941 953 965 975 985 993 999 1004 1008 993 996 997 994 985 970 951 928 905 883 864 828 809 789 770 752 733 711 691 673 656 641 630 622 617 613 608 604 602 603 608 616 627 641 656 669 682 696 708 719 726 729 729 724 713 699 681 663
963 977 990 1003 1017 1029 1039 1044 1046 1045 1043 1038 1033 1026 1015 1000 984 966 950 936 924 913 902 892 883 879 878 881 886 890 893 894 894 894 896 899 903 905 902 895 885 875 867 865 867 873 879 887 894 901 906 909 910 910 910 911 915 923 933 945 957 970 983 994 1005 1013 1020 1025 1028 1029 1012 1010 1004 992 976 956 933 909 889 849 831 812 793 775 757 738 716 695 676 658 641 629 620 613 606 600 594 589 588 590 597 608 623 639 653 667 679 692 704 715 722 723 721 714 703 690 673
951 964 977 989 1001 1013 1024 1031 1034 1036 1035 1033 1030 1024 1015 1002 986 970 955 942 930 918 907 897 889 886 887 892 898 903 907 910 911 911 912 913 915 915 912 904 893 883 877 875 878 884 891 898 906 913 920 924 927 928 929 932 935 942 951 962 975 988 1001 1013 1023 1032 1039 1044 1046 1044 1026 1019 1010 997 980 959 936 913 873 852 832 813 795 777 760 741 720 699 679 660 644 631 620 611 603 595 587 580 576 575 580 590 604 620 634 648 661 673 686 699 708 713 713 709 702 693 678
940 952 965 976 988 999 1009 1017 1022 1024 1025 1025 1023 1018 1010 999 985 971 958 946 935 924 913 903 896 893 894 898 904 911 917 921 924 925 925 925 925 924 920 912 901 892 886 885 889 895 903 911 919 927 934 940 944 947 950 952 957 963 972 982 994 1006 1017 1029 1040 1049 1056 1061 1061 1055 1044 1026 1015 1001 982 961 938 917 877 855 835 815 795 778 761 743 723 703 683 664 647 633 621 611 602 593 583 575 568 565 567 574 587 601 615 629 641 653 665 677 689 698 702 701 697 691 680
928 941 953 965 976 986 995 1002 1008 1012 1013 1014 1013 1009 1002 992 981 970 959 950 940 931 921 912 905 901 901 904 910 916 924 930 934 936 936 936 935 933 928 920 910 901 895 896 900 907 916 924 933 941 950 957 963 967 970 973 978 985 993 1002 1012 1023 1033 1044 1054 1063 1070 1074 1073 1065 1053 1032 1019 1003 983 962 941 901 881 860 838 816 795 777 760 744 726 707 688 668 651 635 622 612 602 592 581 571 562 557 557 562 572 584 597 610 622 633 644 655 667 678 687 689 688 685 679
918 929 941 952 963 971 979 986 992 996 999 999 999 995 990 982 974 966 959 952 945 937 929 922 916 911 910 912 917 923 931 939 945 947 948 947 945 942 937 930 920 912 908 908 913 920 929 938 947 956 966 975 982 987 992 996 1001 1007 1014 1021 1030 1039 1048 1058 1068 1076 1082 1084 1081 1072 1059 1038 1022 1004 984 964 925 906 887 865 842 818 796 777 760 745 729 712 693 673 655 638 624 612 602 591 580 569 560 553 551 553 560 570 580 591 603 614 624 635 646 657 668 674 675 674 673
908 918 928 938 947 955 963 970 975 980 982 982 981 979 975 969 964 960 956 952 947 942 937 932 927 923 922 923 927 933 942 950 957 960 961 960 958 955 949 943 935 927 924 924 928 935 944 953 962 972 982 992 1001 1008 1013 1018 1023 1028 1033 1039 1046 1053 1061 1070 1079 1086 1091 1091 1086 1076 1062 1046 1025 1006 987 967 931 913 893 872 847 822 799 779 763 748 733 717 699 680 660 642 627 614 603 592 580 569 559 551 547 546 550 558 566 575 586 596 606 617 628 638 649 656 660 662 664
899 906 914 923 931 939 946 953 959 963 964 964 963 961 957 954 952 951 950 949 947 945 943 940 937 935 935 936 940 947 956 964 971 975 976 976 973 969 965 959 953 948 944 944 947 952 959 968 977 987 998 1008 1017 1025 1031 1035 1040 1044 1049 1054 1059 1064 1071 1078 1086 1091 1094 1092 1085 1075 1062 1046 1027 1008 990 954 938 920 901 879 854 828 805 784 767 753 739 724 707 688 667 647 631 617 605 594 582 571 560 551 544 540 540 545 553 561 570 581 591 602 613 622 631 639 645 650 653
891 896 901 908 916 923 931 938 943 947 948 947 946 944 941 939 939 940 941 943 945 945 946 946 946 946 947 950 956 963 972 981 987 991 993 993 991 987 983 978 974 970 969 968 969 972 978 985 992 1001 1011 1020 1029 1036 1042 1047 1051 1054 1058 1062 1067 1071 1077 1082 1086 1089 1088 1085 1079 1070 1059 1044 1028 1010 976 959 943 926 907 886 862 837 812 791 773 758 744 730 714 695 674 653 635 621 610 598 586 573 561 550 540 534 531 533 539 547 556 568 579 591 601 610 617 624 630 636 642
883 888 892 897 903 910 918 925 930 933 933 931 930 927 924 924 925 928 932 936 940 944 947 950 953 956 960 964 971 980 989 997 1003 1007 1009 1010 1009 1007 1003 999 996 994 993 992 992 994 998 1002 1006 1012 1019 1026 1033 1039 1045 1049 1053 1056 1060 1064 1068 1073 1077 1080 1081 1080 1077 1073 1069 1063 1054 1041 1027 996 980 963 947 931 913 893 871 846 821 798 780 763 749 735 720 700 679 658 640 625 614 602 589 574 560 547 536 528 524 524 527 533 543 555 568 580 590 599 605 611 616 624 631
876 881 884 889 894 900 907 913 917 919 920 917 915 911 907 907 911 916 922 928 935 941 946 952 957 963 970 978 986 995 1004 1012 1016 1020 1022 1024 1024 1023 1022 1019 1017 1015 1014 1014 1014 1015 1015 1016 1017 1019 1022 1026 1030 1035 1038 1042 1046 1050 1054 1059 1064 1069 1072 1073 1071 1068 1064 1060 1056 1052 1046 1036 1024 997 982 966 950 934 918 899 878 855 830 806 786 768 753 739 722 703 682 662 644 629 617 605 590 573 558 544 532 524 518 516 517 522 531 543 555 568 579 587 593 599 605 613 620
869 874 878 882 886 891 896 900 903 906 906 904 900 895 891 891 897 904 912 921 930 939 946 954 961 970 980 989 998 1008 1016 1021 1025 1028 1031 1033 1034 1035 1035 1035 1033 1032 1032 1032 1032 1031 1029 1026 1023 1021 1020 1020 1020 1022 1025 1029 1033 1038 1043 1048 1054 1059 1062 1062 1059 1054 1048 1044 1042 1039 1035 1028 1006 993 981 967 952 937 921 903 883 861 837 813 790 771 754 739 723 704 684 665 648 634 621 608 590 572 556 541 529 519 513 509 509 513 521 531 543 554 565 574 581 587 596 604 613
862 867 871 875 878 881 884 887 889 891 891 889 885 880 878 878 884 893 903 914 926 936 946 955 965 975 986 997 1006 1015 1022 1026 1029 1031 1034 1037 1039 1042 1043 1044 1045 1044 1044 1044 1043 1040 1035 1029 1022 1016 1011 1007 1005 1005 1008 1011 1015 1020 1025 1031 1038 1045 1048 1048 1043 1037 1031 1028 1026 1024 1021 1009 1000 988 979 966 952 938 922 904 885 864 841 817 794 774 755 739 721 702 684 667 653 639 626 610 592 573 555 539 526 516 508 504 502 504 510 520 531 542 552 561 568 575 585 596 607
854 859 863 865 868 870 871 873 875 875 874 872 868 865 864 865 872 882 895 909 922 934 946 956 967 978 989 999 1009 1016 1022 1025 1028 1030 1032 1035 1039 1043 1046 1049 1050 1050 1050 1049 1046 1042 1035 1026 1016 1007 998 992 988 988 989 991 994 999 1003 1010 1019 1027 1032 1031 1027 1020 1014 1010 1008 1006 1001 996 990 982 971 964 951 937 920 902 884 865 844 821 799 777 757 739 720 701 684 668 656 643 628 611 592 572 554 539 525 513 505 499 496 497 501 509 520 530 539 547 554 563 574 588 602
842 847 852 855 857 858 858 859 860 860 858 855 852 849 848 851 859 872 886 902 917 931 944 956 967 977 987 997 1005 1011 1016 1019 1022 1025 1027 1031 1035 1039 1044 1047 1049 1049 1048 1047 1044 1038 1030 1019 1007 995 985 977 973 971 969 969 972 976 982 989 999 1008 1013 1014 1009 1003 996 991 988 986 983 981 978 972 964 959 946 932 915 898 881 864 845 824 803 780 759 740 721 701 683 668 656 643 627 610 591 571 553 539 525 513 503 497 493 492 494 500 509 519 527 534 542 551 563 579 595
828 835 840 844 846 847 847 847 846 846 843 840 836 833 833 837 846 860 876 893 910 926 941 954 965 975 984 991 997 1002 1006 1009 1013 1016 1020 1023 1027 1031 1035 1039 1041 1041 1040 1038 1035 1030 1021 1010 996 983 972 963 957 954 950 948 949 954 961 969 978 987 994 995 992 986 978 972 968 966 966 965 964 960 953 943 939 925 908 892 876 861 844 824 804 781 759 739 720 699 681 667 654 639 623 606 587 568 552 538 524 512 502 495 491 489 489 493 500 508 515 522 530 540 552 568 587
815 822 828 832 835 837 837 836 834 832 829 824 820 818 819 823 832 847 865 884 902 920 936 951 963 972 979 984 988 991 994 997 1000 1005 1009 1013 1016 1019 1022 1025 1026 1026 1026 1024 1021 1017 1009 998 985 971 959 949 942 937 933 930 931 935 942 950 958 967 975 978 976 969 961 953 947 947 947 947 946 944 939 931 930 916 901 885 870 855 839 821 801 779 758 737 716 696 678 663 649 634 617 600 582 565 550 536 523 511 502 494 489 486 485 487 492 498 505 512 519 528 540 556 575
801 809 815 820 824 826 826 825 823 820 816 811 806 803 804 810 820 836 856 875 894 913 930 945 959 968 974 977 978 979 980 982 986 991 996 999 1002 1004 1006 1008 1009 1009 1009 1008 1006 1002 996 986 973 959 947 936 926 919 915 913 914 918 925 932 941 950 957 961 960 954 945 937 928 927 927 927 926 925 923 917 919 906 891 876 863 849 833 814 795 775 755 734 713 692 674 659 643 627 611 593 576 560 546 533 521 510 501 493 487 483 481 481 485 491 497 503 510 518 529 544 563
789 796 802 807 811 813 813 812 810 807 804 800 795 791 792 799 812 829 849 869 887 905 922 939 953 963 968 969 968 966 964 965 969 974 980 984 986 988 989 990 991 992 992 991 990 988 983 973 961 948 935 923 911 902 896 894 895 900 907 915 923 932 940 945 945 940 931 914 909 907 905 905 905 905 903 899 892 894 880 867 854 841 825 807 790 772 752 731 709 688 671 655 638 622 605 587 570 555 542 530 519 509 500 492 485 480 476 476 480 486 492 498 504 511 520 533 550
779 785 790 794 796 798 798 797 795 794 792 788 784 780 782 791 806 824 845 865 883 899 916 932 946 956 961 961 958 954 950 949 952 958 964 969 971 973 973 974 975 976 976 976 975 973 968 960 949 937 924 911 897 885 877 873 874 878 885 894 904 914 922 927 928 924 907 897 890 885 882 881 881 883 883 880 875 881 869 857 845 832 817 801 786 770 751 729 707 687 670 654 636 619 602 583 566 551 537 525 515 506 498 490 483 476 472 472 475 482 489 496 502 508 515 525 539
768 773 777 779 781 781 780 779 778 777 774 772 771 770 774 785 801 819 840 861 879 894 910 925 939 948 952 951 947 942 937 936 938 943 950 955 958 959 959 959 960 961 961 961 960 958 954 947 937 926 914 899 884 870 859 853 851 855 862 872 883 894 902 908 911 902 892 882 872 865 860 858 859 861 863 863 859 853 857 846 835 824 811 796 783 770 753 731 708 689 671 654 636 618 600 581 563 547 534 522 512 503 495 487 480 473 468 468 472 478 486 495 502 508 514 521 531
755 760 763 766 766 765 764 760 757 754 751 752 757 761 768 780 797 815 836 856 874 889 904 918 930 938 941 939 935 930 925 924 927 932 938 944 947 947 946 945 946 946 945 944 944 943 940 934 926 916 904 889 873 858 844 835 831 834 841 851 862 872 881 888 892 887 878 866 855 846 840 838 838 841 844 845 844 838 844 834 825 815 804 792 781 771 756 735 714 693 673 653 635 616 597 579 562 546 532 520 509 500 491 483 475 469 464 464 468 475 484 493 501 508 513 519 526
742 746 750 752 753 752 748 743 738 733 730 733 740 748 759 774 791 810 830 850 869 884 899 912 922 927 929 927 923 918 914 914 917 922 928 933 936 935 933 932 931 929 928 927 928 928 926 922 915 906 894 880 863 847 832 821 816 818 824 833 843 853 861 869 875 872 863 852 840 829 822 819 819 822 824 826 825 820 812 820 812 804 795 787 779 771 759 741 721 699 675 653 631 610 592 576 562 547 532 518 507 496 487 478 471 464 460 460 464 472 481 491 500 508 513 518 523
730 735 738 740 739 735 729 723 718 715 713 716 724 735 749 765 784 804 824 844 863 880 895 906 913 917 917 914 910 905 902 901 904 910 916 922 925 924 921 918 915 913 912 912 913 914 913 911 905 897 886 872 856 839 823 811 804 803 807 815 825 834 842 857 860 858 851 840 826 813 805 801 799 800 803 804 804 800 793 804 797 792 786 781 775 769 759 745 725 702 677 650 625 604 588 574 561 547 531 516 503 492 483 474 466 460 456 456 459 466 476 488 498 506 513 518 522
717 723 725 724 719 713 706 699 696 695 697 702 711 724 738 755 775 796 817 838 858 875 889 898 903 906 905 901 896 891 887 887 890 896 903 909 913 913 909 905 901 898 897 898 899 900 901 900 896 889 879 866 850 833 816 803 794 790 791 796 805 814 823 841 846 845 838 828 813 799 789 783 779 779 781 782 783 781 776 787 782 779 776 773 768 763 755 741 723 701 674 645 619 600 586 573 560 547 532 516 501 489 479 471 463 456 452 451 453 460 469 481 493 503 511 517 522
700 705 706 703 697 690 684 679 676 677 682 691 701 713 728 746 767 789 811 832 851 867 880 887 891 893 891 887 882 876 872 871 874 882 890 896 900 900 896 892 887 884 883 883 885 887 888 888 886 881 873 860 844 826 810 796 785 778 776 778 785 794 815 825 830 830 825 815 801 784 772 765 761 759 759 761 762 761 758 755 767 766 764 762 759 755 747 733 715 695 669 641 616 599 586 574 562 548 533 517 502 489 478 469 460 452 448 446 447 452 461 472 485 497 507 515 520
677 682 683 681 675 669 665 663 662 663 670 681 693 707 722 740 760 782 804 825 843 858 869 875 878 879 877 873 867 861 857 856 859 867 875 883 887 887 883 879 874 871 869 869 871 872 874 875 875 871 864 853 836 819 804 790 777 767 762 762 765 785 796 806 813 813 809 802 789 772 759 750 744 740 739 740 741 741 739 738 753 754 753 749 746 743 735 721 705 686 663 638 616 601 589 577 564 551 536 520 504 491 480 469 460 451 445 442 441 444 451 461 474 488 500 510 516
654 659 662 660 656 650 647 646 647 651 659 672 688 704 719 736 755 777 799 818 835 848 858 862 864 864 862 858 852 847 844 844 847 853 861 869 873 873 870 865 861 857 855 856 857 858 860 862 862 859 853 842 827 812 798 784 770 758 749 745 754 765 777 787 794 797 794 787 776 760 746 735 727 722 720 722 722 719 718 720 722 741 741 736 732 728 720 708 694 676 655 635 618 604 592 581 569 555 540 524 509 495 483 473 463 453 446 440 436 436 440 449 462 476 490 502 511
634 638 641 641 637 632 629 629 632 639 649 663 682 701 716 731 751 772 793 811 826 838 845 849 850 849 847 843 837 833 831 832 835 840 848 855 859 859 856 852 848 843 841 842 844 846 847 848 847 844 838 829 816 803 791 776 761 748 737 729 735 746 758 769 776 780 779 772 761 748 733 720 709 704 701 700 698 694 695 699 702 723 721 717 715 711 704 694 682 667 650 634 621 609 597 586 574 560 545 529 514 500 488 477 467 458 449 441 433 430 430 436 448 462 479 493 505
614 618 620 620 618 615 613 614 619 629 641 656 674 694 710 725 744 766 786 803 817 826 832 835 836 835 832 827 823 819 818 818 821 827 834 840 845 845 843 839 835 831 829 829 830 832 834 834 832 829 823 814 803 791 779 763 748 735 723 709 714 724 738 750 758 762 761 756 748 735 720 704 692 685 679 674 672 671 674 676 676 700 694 692 691 689 683 677 669 658 645 633 623 611 600 590 578 565 550 534 519 505 493 482 473 464 454 443 433 425 422 424 434 448 466 484 499
597 600 602 601 600 599 599 603 611 623 636 652 671 689 705 719 737 757 776 793 806 814 818 821 822 821 817 813 809 806 804 804 808 814 820 827 831 832 830 827 823 819 817 816 817 818 819 819 818 815 809 799 789 777 764 747 731 718 697 693 694 703 717 730 740 744 742 739 733 724 708 690 676 667 660 655 653 653 654 654 652 650 670 668 668 666 662 658 654 647 638 629 621 611 600 591 580 568 555 540 526 512 499 488 480 471 461 447 434 423 416 415 422 436 454 473 490
582 585 586 585 584 583 587 593 604 617 632 649 668 686 700 714 730 748 765 781 792 799 804 806 807 806 804 800 797 794 791 791 796 802 809 815 819 820 819 816 812 809 806 804 803 804 804 804 803 801 794 785 774 763 748 729 712 688 681 677 677 684 697 709 719 724 724 722 718 712 698 679 662 652 646 642 638 636 634 633 632 631 649 648 647 645 642 640 638 634 628 623 616 608 599 589 579 569 559 547 533 519 506 495 486 477 467 454 438 423 412 409 414 426 442 462 481
567 569 569 568 568 569 574 584 597 612 628 645 662 679 695 710 725 741 754 766 776 782 787 790 792 791 789 786 784 781 779 780 786 793 798 803 807 808 808 806 802 797 792 790 790 790 791 790 789 786 781 773 762 750 733 711 693 671 665 661 661 667 678 689 698 705 706 706 704 698 686 668 649 637 633 629 625 621 619 617 616 615 613 628 627 626 624 622 620 618 616 614 610 604 597 588 578 570 562 552 540 527 513 501 491 483 473 459 443 425 412 406 409 418 432 451 471
551 552 552 551 551 555 562 575 590 606 623 641 657 674 690 705 720 732 742 751 759 764 769 772 774 774 772 769 767 766 766 770 776 782 787 791 794 796 796 794 790 784 779 777 777 777 777 776 775 772 767 760 750 735 716 694 665 656 650 647 647 652 663 673 679 684 687 689 688 684 672 655 636 623 619 616 611 608 605 604 604 603 600 612 610 607 605 604 602 601 602 602 603 601 597 588 579 570 564 556 546 533 519 506 496 488 477 463 445 427 413 405 405 411 424 442 462
534 535 534 533 536 542 551 565 582 601 620 638 654 669 684 699 712 724 731 738 744 749 752 755 758 758 757 755 753 753 755 758 764 770 775 778 781 784 784 782 778 774 769 766 765 764 763 762 761 757 751 745 735 719 699 663 650 641 635 633 634 639 650 658 661 665 669 672 673 669 658 641 623 610 605 602 597 594 592 591 592 591 587 580 592 589 586 584 583 583 586 589 594 597 595 589 580 571 564 558 550 539 526 512 502 492 481 465 446 428 413 404 402 407 419 436 455
519 518 517 518 522 530 541 557 575 595 616 636 651 664 676 689 702 712 719 724 730 735 739 741 743 744 743 742 741 742 743 747 753 758 763 767 770 772 772 771 768 765 761 757 753 750 748 746 744 741 735 729 720 704 684 649 636 627 621 617 618 623 632 640 644 648 653 657 658 656 647 631 613 600 592 587 582 580 578 578 578 576 571 565 575 571 568 566 565 567 571 577 583 588 590 587 581 572 564 557 550 541 529 517 507 496 482 464 445 427 412 403 400 404 414 429 448
504 502 501 504 511 520 533 549 568 589 610 630 646 658 669 680 690 698 704 709 715 720 724 727 727 728 729 729 729 729 731 736 742 747 752 757 760 762 761 760 759 756 751 745 740 736 733 730 728 725 720 714 705 690 654 637 624 614 607 602 602 606 613 621 628 634 639 642 644 644 637 622 605 592 583 576 570 566 565 565 564 563 559 552 559 554 551 549 549 552 557 565 572 579 583 584 580 573 565 557 548 538 529 519 509 497 481 462 443 426 411 401 398 400 408 423 442
490 488 489 493 501 512 525 542 562 582 602 621 638 651 661 670 678 684 688 693 699 704 709 711 712 714 715 716 716 717 719 724 730 735 741 746 750 752 752 751 749 746 740 733 728 724 720 717 715 713 708 701 691 660 644 628 614 602 594 590 588 590 597 605 613 621 626 629 631 631 625 612 598 587 577 567 560 555 553 553 553 552 549 543 535 540 536 535 536 539 545 553 561 569 575 577 576 571 564 555 546 536 526 517 508 495 478 461 442 423 408 399 395 396 404 419 437
477 476 478 484 492 503 517 535 554 574 593 610 626 639 649 657 664 671 675 679 684 690 694 697 700 703 704 704 705 706 708 711 716 722 729 735 739 741 742 741 739 735 729 722 717 713 709 706 704 701 696 689 665 650 636 620 605 591 581 577 576 576 582 589 597 605 612 617 619 616 609 600 592 583 570 558 549 543 541 542 542 541 539 533 527 529 525 523 524 527 533 542 550 557 563 567 568 564 559 552 542 533 523 513 504 493 477 459 440 421 405 396 392 392 400 414 431
466 466 469 474 483 494 509 526 545 564 582 598 612 625 635 642 649 655 660 663 668 673 679 684 689 693 695 695 694 694 694 697 703 709 717 724 728 730 730 730 728 723 717 712 707 702 699 696 692 689 684 678 655 642 626 610 595 580 570 565 563 562 566 573 580 587 596 603 606 604 597 591 585 574 559 547 538 532 529 529 529 529 526 522 517 511 516 513 513 516 522 530 537 543 549 553 555 553 550 545 537 529 520 510 501 491 476 457 438 419 404 393 388 388 395 409 425
455 457 460 465 474 486 501 517 535 553 569 585 598 610 619 626 631 637 641 645 650 655 662 669 675 681 686 687 685 682 682 685 690 697 705 712 717 719 720 720 718 712 706 700 694 689 686 683 679 675 670 655 644 631 615 599 584 570 560 554 550 549 551 556 563 571 580 589 594 592 587 581 572 559 545 535 526 521 519 517 517 517 514 510 505 500 506 504 505 508 512 518 524 529 533 537 539 539 537 534 529 523 516 507 498 489 476 456 436 417 401 390 384 384 390 403 418
444 448 451 457 466 478 492 508 525 542 558 572 585 595 604 609 614 619 622 626 631 638 646 654 661 668 674 677 676 674 673 673 678 685 692 699 705 709 711 712 710 703 695 688 680 675 672 668 664 659 647 640 630 619 605 590 575 562 552 545 540 538 539 543 549 558 567 576 581 580 573 564 555 544 533 523 516 511 509 507 506 504 502 499 495 491 496 495 497 499 503 507 511 515 518 520 522 522 522 521 520 517 512 505 497 488 474 455 435 416 399 386 380 379 385 396 411
434 439 444 450 459 470 483 499 516 533 548 561 573 582 589 594 599 602 605 609 615 623 632 641 648 655 661 663 663 662 661 660 664 672 679 686 692 697 700 702 701 694 686 676 667 662 659 655 650 644 634 626 617 608 596 582 567 554 545 538 532 529 529 532 539 548 556 562 566 565 558 548 539 531 522 513 507 502 500 497 495 492 491 489 486 483 481 487 489 491 494 498 501 503 505 506 506 507 508 509 509 509 507 502 496 487 472 454 434 415 397 383 375 374 378 388 402
425 431 437 444 453 464 476 491 508 524 538 551 561 570 576 581 585 588 592 595 601 608 618 628 636 643 647 648 647 646 645 647 652 660 667 674 680 684 687 689 689 685 677 666 656 650 647 643 638 630 625 617 607 598 588 574 559 547 538 531 525 521 521 524 531 539 545 550 552 551 545 537 528 519 510 503 497 493 490 488 485 483 480 479 478 475 473 480 481 484 487 491 494 494 494 494 494 495 497 498 499 500 500 498 493 484 471 453 434 416 397 382 372 368 371 380 394
416 424 432 439 448 458 469 483 499 514 528 539 549 558 564 568 572 576 578 582 587 594 603 614 623 631 635 636 634 632 632 634 639 647 655 662 668 673 677 679 679 676 669 659 647 639 636 633 623 620 614 607 596 586 577 565 551 540 530 523 517 514 514 517 523 531 536 539 539 537 532 525 516 507 499 493 488 484 480 478 476 473 471 470 469 466 464 462 473 476 481 485 487 487 486 485 485 486 487 488 489 490 491 491 488 481 470 454 436 418 400 383 371 365 365 373 386
408 417 426 434 442 451 462 475 488 503 516 526 536 544 551 555 559 562 565 568 573 580 589 600 610 619 624 625 624 621 620 621 625 632 641 649 658 665 669 671 670 668 663 654 642 633 627 614 609 606 602 596 585 576 568 557 545 534 523 514 509 506 505 509 516 523 528 530 529 524 518 511 503 496 488 482 477 473 470 468 466 464 462 462 461 458 455 453 463 467 472 476 479 480 479 478 477 478 479 480 480 481 483 483 481 476 467 454 439 423 406 387 372 363 362 367 379
400 409 418 427 434 442 452 464 476 489 501 512 521 529 536 541 546 550 552 555 559 566 576 587 599 608 614 616 613 609 607 607 610 617 626 636 647 656 662 663 662 660 658 650 640 630 619 596 591 590 589 585 576 568 561 550 538 528 517 507 500 496 496 500 508 516 522 523 519 513 505 498 491 484 478 472 466 462 460 458 456 455 455 456 456 454 450 445 443 456 461 466 469 471 472 472 471 471 471 473 474 474 475 474 473 471 465 455 443 429 411 392 375 363 359 362 372
390 400 409 417 424 431 439 450 461 473 485 496 506 514 521 527 533 538 541 544 548 554 564 576 588 597 603 605 602 597 594 593 595 602 612 623 634 645 652 654 654 653 651 646 639 628 596 581 574 573 572 570 565 558 554 545 533 521 510 499 491 487 488 492 500 509 515 516 512 505 496 488 481 475 469 463 457 453 451 449 448 449 450 452 453 453 448 440 435 444 448 453 457 461 463 465 464 464 465 466 468 468 467 467 467 465 461 454 445 433 416 396 378 364 357 358 367
379 389 398 405 412 418 425 435 446 458 471 482 492 500 507 514 521 527 532 535 539 545 554 565 577 586 592 594 591 586 583 581 581 587 597 609 621 633 641 645 647 646 644 641 635 611 594 576 565 560 557 556 552 548 545 538 527 515 503 492 485 481 480 484 492 501 508 510 507 501 490 481 473 467 461 454 448 444 442 441 442 444 447 450 451 451 445 436 430 433 434 438 442 448 452 456 457 457 458 459 461 461 461 461 461 460 457 451 444 434 419 400 382 367 357 356 363
369 377 386 393 400 406 413 423 434 446 458 469 479 487 495 503 510 517 523 527 530 536 544 555 565 575 581 584 582 577 574 571 570 573 583 596 608 620 630 636 639 639 638 635 628 605 589 575 564 555 549 546 543 540 537 532 521 509 496 486 479 474 473 478 485 494 501 504 502 495 486 476 469 462 455 448 441 437 434 435 437 440 443 446 447 446 441 434 427 420 423 424 428 433 439 445 449 450 450 451 453 454 455 455 455 454 450 446 440 432 419 403 386 370 359 355 360
360 368 376 383 390 397 405 414 424 435 446 457 467 476 485 493 501 507 513 517 520 525 533 543 553 561 568 571 570 567 564 561 559 561 569 582 595 608 619 627 631 633 632 629 611 595 579 568 560 552 545 540 536 534 531 525 515 502 490 480 471 466 466 471 479 487 493 497 496 490 481 474 467 460 451 443 436 430 427 427 430 434 438 440 441 440 437 432 425 417 415 414 416 420 426 433 439 442 443 443 444 447 448 448 447 446 443 439 433 427 417 404 388 372 360 355 357
353 360 368 376 383 391 398 407 416 425 435 445 455 465 475 484 491 496 502 505 508 512 520 529 538 547 553 556 556 555 553 550 548 550 557 570 583 596 608 617 623 626 626 618 608 592 575 561 553 547 539 532 529 528 524 517 507 495 484 472 463 458 458 463 472 480 486 490 489 485 479 472 465 456 447 438 430 423 420 420 423 427 432 435 437 436 434 430 423 415 408 407 407 409 414 421 427 433 435 435 436 439 440 440 439 438 435 431 427 421 413 401 388 373 361 354 354
348 354 362 370 378 385 392 400 408 415 424 433 443 454 465 473 480 485 489 492 495 499 506 514 523 531 537 540 541 540 539 538 538 541 548 560 574 586 598 607 614 619 617 612 603 590 574 559 549 542 533 523 519 518 514 507 499 489 478 466 457 451 451 455 463 473 479 482 483 480 476 470 462 452 443 433 424 416 412 413 416 421 426 430 432 433 432 429 423 415 406 403 399 399 403 409 415 421 425 426 428 430 432 431 429 428 427 424 420 416 409 399 386 373 361 352 350
343 349 356 364 371 379 386 393 399 405 413 421 432 443 454 463 470 474 477 480 482 486 492 499 508 515 521 524 525 524 524 525 527 532 540 553 566 578 589 598 606 611 609 602 594 583 572 560 548 536 525 516 511 507 502 497 490 482 473 461 451 444 443 446 454 463 471 475 476 475 472 466 458 448 438 428 418 409 405 405 408 413 417 422 425 426 427 426 421 414 404 399 393 391 393 398 404 409 413 416 418 420 422 422 420 418 418 416 413 410 405 396 384 372 360 350 347
338 342 348 355 363 371 378 385 391 396 403 411 421 432 443 452 459 464 466 469 471 474 479 486 493 500 505 507 508 508 509 513 517 523 533 546 559 571 581 590 597 602 599 592 585 577 570 561 549 532 516 509 506 498 492 487 481 474 465 454 443 436 433 436 444 452 460 465 468 468 466 461 453 444 433 422 411 402 397 397 400 403 406 410 413 415 416 416 414 409 400 392 388 384 385 388 394 399 403 405 408 410 411 412 411 410 409 408 406 404 400 393 382 370 358 349 346
332 336 340 346 353 361 368 375 382 388 393 401 411 421 433 442 450 454 457 460 462 464 468 474 480 485 489 491 492 493 496 501 508 516 527 539 552 563 573 580 590 591 588 583 578 572 566 560 549 531 509 499 497 490 484 480 473 464 455 445 435 427 423 425 431 439 446 453 458 462 461 457 450 441 430 417 405 394 389 388 389 391 393 395 397 399 400 402 401 399 394 387 384 379 378 380 385 390 394 397 399 400 400 400 401 401 401 400 399 398 394 388 379 367 356 349 346
327 329 332 337 343 350 357 365 373 379 385 392 401 412 423 433 441 446 450 452 454 456 460 464 468 472 475 477 478 481 485 492 501 511 521 533 545 555 563 574 577 577 576 573 570 567 563 557 549 532 509 494 488 481 475 471 463 454 444 435 425 418 414 414 418 426 434 442 451 459 461 457 450 441 429 414 400 388 381 379 378 378 379 380 380 381 382 385 386 387 385 380 375 375 373 373 377 382 386 389 390 390 389 390 391 392 392 392 391 390 387 382 374 364 355 349 346
321 323 326 330 335 341 348 356 364 371 377 384 392 402 413 424 433 439 443 445 447 450 452 455 457 461 464 466 468 471 477 485 495 506 517 528 538 546 552 561 564 564 564 563 562 560 558 554 547 533 510 492 483 474 468 462 453 442 433 424 415 410 406 405 409 415 424 435 446 454 459 459 453 442 428 413 397 383 375 370 368 367 367 366 365 365 366 368 371 373 373 372 369 371 370 370 371 374 377 379 380 380 380 380 381 382 382 381 381 380 379 374 368 361 355 349 346
316 318 321 324 328 333 340 348 356 364 371 377 384 392 402 413 422 429 434 438 441 443 444 445 447 450 453 456 459 463 469 479 491 503 514 524 531 537 546 549 551 552 552 552 552 551 550 549 546 537 518 498 485 474 466 456 445 433 422 413 405 400 398 398 401 407 417 428 439 447 453 455 452 442 427 411 395 381 370 364 361 360 358 353 351 351 352 354 356 358 360 361 362 362 367 366 365 365 367 369 370 371 372 372 373 373 372 370 369 370 370 367 363 359 354 349 346
310 313 317 320 323 329 335 343 351 359 365 370 375 381 389 399 409 417 424 429 433 434 435 436 438 441 444 447 451 456 464 476 489 501 511 520 525 532 535 537 538 539 539 539 539 539 541 543 545 541 528 508 492 478 466 453 440 426 414 404 396 392 390 391 394 400 409 420 431 440 445 448 447 440 426 410 395 380 368 361 356 354 350 345 342 340 340 342 343 345 348 352 354 355 362 361 359 357 358 359 361 362 364 365 366 367 366 362 360 362 362 361 359 356 352 348 344
304 308 313 317 321 326 332 340 348 355 361 364 366 370 376 385 395 405 413 419 423 426 427 428 430 432 435 438 443 449 458 471 486 498 508 515 519 523 524 525 525 525 525 525 526 528 531 535 540 540 530 513 496 482 466 451 437 423 409 398 390 386 384 385 387 393 402 412 422 430 436 439 439 435 424 410 394 379 368 359 352 348 344 342 339 335 332 333 333 334 338 342 345 346 355 355 354 352 352 353 354 355 357 359 361 362 361 358 357 357 357 357 355 353 350 346 343
297 303 309 315 320 325 330 337 345 351 356 358 360 362 365 372 381 391 401 408 413 416 417 419 421 422 425 431 437 443 452 466 481 493 503 510 515 515 514 513 512 511 511 511 512 515 520 527 533 535 529 515 499 484 468 451 437 422 407 394 385 382 380 379 381 386 393 401 410 418 425 428 428 425 418 408 394 380 368 358 350 344 341 340 337 332 328 326 325 325 328 333 336 339 342 348 349 349 348 348 349 350 352 354 357 358 357 356 355 354 354 353 352 351 348 345 342
293 301 308 315 320 324 329 336 342 347 351 353 354 355 357 361 368 378 388 396 402 405 407 409 410 412 416 423 430 438 448 461 475 488 497 508 509 508 506 504 502 499 497 497 499 503 510 519 525 528 524 513 500 486 470 454 438 422 406 392 383 378 375 373 374 377 382 388 396 405 412 416 417 416 412 405 395 382 369 359 350 344 339 336 333 329 323 320 318 318 321 325 330 335 340 344 344 345 345 345 345 346 348 350 352 354 353 353 352 351 351 351 351 349 346 343 340
292 301 309 315 320 324 329 334 339 343 345 347 349 349 350 353 358 366 375 384 390 394 396 398 400 403 407 415 424 434 445 458 471 482 499 503 505 503 501 498 495 491 488 488 489 492 499 507 514 518 515 507 497 486 471 456 441 424 407 392 380 373 369 368 368 368 371 375 382 390 397 402 404 405 403 398 391 381 371 360 350 342 337 332 328 325 320 315 314 314 317 321 327 333 337 338 341 341 341 341 342 343 345 347 348 348 348 348 348 348 349 349 349 347 345 341 338
293 302 310 316 320 324 328 332 335 338 340 341 343 344 345 347 351 357 364 372 379 383 386 389 391 394 400 407 418 429 441 453 465 476 493 498 501 500 497 494 491 487 484 482 481 483 488 495 502 507 506 500 492 483 471 457 443 426 407 389 376 368 364 363 362 361 361 364 369 375 381 385 388 390 389 386 381 374 367 358 348 340 334 330 325 321 317 313 311 312 314 318 324 330 333 333 337 336 337 337 338 340 341 343 343 343 343 343 344 345 346 347 347 345 343 339 336
295 304 311 316 319 322 325 328 331 333 334 335 337 339 341 342 346 351 356 363 369 373 377 380 384 387 393 401 411 423 435 446 457 478 486 492 496 497 495 492 489 485 481 478 475 474 477 484 489 494 495 491 484 475 466 455 442 425 406 387 373 364 359 357 355 353 353 355 359 362 365 368 371 372 372 370 368 364 360 353 345 338 333 328 322 317 313 311 309 310 312 316 321 326 328 328 326 331 332 333 334 335 337 338 338 338 339 339 340 342 344 345 344 342 340 336 333
299 306 312 316 319 321 323 325 327 328 330 331 333 335 337 340 343 347 351 356 361 366 370 374 377 382 387 395 406 417 429 439 459 470 479 486 491 494 493 490 487 483 479 474 469 465 467 471 476 479 481 479 474 468 461 453 440 423 405 388 373 362 356 352 350 348 347 348 350 352 353 353 354 355 354 354 353 353 351 347 342 338 333 326 318 312 310 308 308 309 311 315 319 322 323 322 321 326 327 328 329 331 332 333 333 334 335 336 337 339 341 342 341 339 336 332 329
302 308 313 316 318 319 321 322 324 325 327 329 331 334 336 339 342 346 350 353 357 361 365 369 373 377 383 391 401 412 423 433 451 461 472 480 486 488 488 486 484 481 477 471 463 458 458 460 463 466 468 467 465 462 457 450 438 423 406 389 374 362 353 348 345 343 343 344 344 344 343 341 339 339 339 339 340 340 339 338 335 333 329 323 315 310 308 308 309 310 312 314 317 318 318 317 317 321 322 323 324 326 328 329 329 331 332 333 335 336 338 338 337 335 332 328 325
305 311 314 317 318 318 319 320 322 324 326 329 332 335 337 340 343 346 350 353 356 359 362 366 370 374 379 387 396 407 417 434 443 454 465 474 480 483 483 484 483 480 475 468 461 455 452 451 452 454 457 458 459 458 454 447 436 422 406 389 373 361 350 343 340 339 338 338 337 335 333 330 327 325 326 327 327 327 327 327 325 323 321 317 312 308 307 309 310 312 313 314 315 315 316 314 313 314 317 318 320 322 324 325 326 328 330 332 333 335 336 335 334 331 328 325 322
309 313 316 318 318 318 319 320 322 325 328 331 334 337 340 343 346 348 351 354 356 359 361 365 368 371 376 383 391 401 420 428 437 447 458 468 475 478 480 482 482 479 475 468 460 453 448 444 443 444 447 450 452 453 450 443 433 421 405 388 371 357 346 339 336 334 333 332 330 326 324 321 318 316 316 317 316 316 317 316 315 313 312 311 308 306 306 308 311 313 314 314 314 313 312 311 309 310 313 314 316 319 321 323 324 327 329 331 332 333 334 333 331 328 324 321 319
311 315 318 319 319 319 320 322 324 327 331 334 338 341 344 346 349 351 354 356 358 359 361 364 367 370 374 379 386 404 415 424 433 443 453 463 471 475 478 480 481 479 476 469 460 452 444 437 435 435 438 441 444 447 445 439 430 419 404 387 369 354 341 334 331 329 327 325 323 320 318 315 312 309 309 310 309 309 308 307 306 306 305 305 304 303 304 306 310 313 314 313 312 310 308 306 305 305 306 311 313 316 319 321 323 326 328 330 332 333 332 330 327 324 320 317 315
314 317 319 320 320 321 322 324 327 330 334 338 341 344 347 349 352 354 356 358 360 361 362 364 366 369 372 376 381 399 410 420 430 440 450 459 468 474 477 479 479 478 474 468 459 449 440 432 428 427 429 433 437 439 439 434 427 417 403 385 367 351 337 330 327 324 321 318 316 313 311 309 306 304 304 304 304 303 302 301 300 299 298 298 299 300 301 302 306 310 312 311 309 307 304 302 301 300 302 307 310 313 317 319 322 325 328 331 333 333 331 328 324 320 317 314 312
315 318 321 322 322 322 324 327 330 333 337 341 344 347 350 352 354 356 358 360 361 362 363 365 367 369 372 375 385 394 405 416 426 437 446 455 464 471 474 476 476 474 469 463 456 447 437 429 423 420 421 425 429 433 433 430 423 414 400 383 365 348 334 327 324 321 317 312 308 305 304 303 301 300 299 299 299 299 298 297 294 292 292 292 294 295 296 298 302 306 309 308 307 305 302 299 297 297 300 305 308 311 315 318 321 325 328 331 333 332 329 326 321 317 313 311 310
316 319 321 322 323 325 327 329 333 336 339 343 346 349 351 354 356 358 360 362 363 364 365 366 368 370 372 379 384 392 402 413 423 433 442 451 459 465 469 470 470 467 462 458 452 444 435 425 417 413 414 418 422 426 429 427 421 412 399 381 363 346 332 324 321 318 314 308 302 299 299 298 297 296 295 294 294 295 294 291 288 286 285 287 288 289 290 293 297 302 304 305 305 303 300 297 295 295 299 302 306 310 314 317 321 324 327 330 331 330 327 323 318 314 310 308 307
316 319 322 323 325 326 329 331 334 338 341 344 347 350 352 355 357 359 362 364 365 367 367 368 369 370 373 381 386 393 402 412 422 431 439 446 453 458 460 460 460 458 455 451 446 440 431 421 412 408 408 412 416 421 425 424 420 411 398 381 363 346 332 323 319 315 312 306 300 296 295 293 291 290 290 289 289 288 286 284 281 280 279 280 282 283 284 287 292 296 300 301 302 301 298 295 293 293 297 299 304 308 313 317 321 324 326 327 328 326 323 319 315 310 307 305 304
317 320 323 325 327 328 330 332 335 338 341 345 348 350 353 355 357 360 362 365 367 369 370 371 372 372 377 381 387 393 401 411 420 429 436 442 447 449 449 449 449 448 446 442 439 433 425 416 408 403 403 407 412 418 421 422 418 410 398 383 366 349 334 324 318 313 308 303 298 294 291 287 285 285 285 285 283 282 280 278 277 275 274 275 277 278 280 282 285 290 294 296 297 297 295 293 292 292 293 296 300 306 312 318 321 322 323 324 323 321 318 315 311 307 304 302 301
319 322 325 327 329 330 331 333 336 339 342 345 348 351 354 356 357 360 362 365 368 370 373 375 376 376 378 382 387 393 401 409 417 424 430 435 437 438 437 437 437 437 436 433 430 426 418 410 402 397 397 402 409 414 417 418 416 410 401 387 370 353 338 326 318 311 305 300 295 291 287 283 281 281 282 281 279 277 276 275 274 272 271 272 273 274 275 277 280 285 288 290 292 292 291 289 289 288 290 293 297 305 311 317 320 320 319 319 318 316 313 310 307 304 301 298 297
321 324 327 329 330 331 332 333 336 340 343 346 349 352 355 357 358 361 364 367 370 372 375 378 379 379 380 384 389 395 401 406 411 417 422 424 426 425 425 424 425 426 426 424 421 418 411 403 396 392 392 398 406 411 414 415 413 410 403 390 375 359 343 329 318 309 301 296 291 287 282 279 278 279 279 278 276 275 274 273 273 271 270 270 271 271 272 273 276 281 283 285 286 287 286 284 284 285 287 291 296 300 309 314 317 317 316 315 313 311 309 306 303 300 298 294 294
322 326 329 331 331 331 332 334 338 341 345 349 351 354 357 359 361 363 367 371 374 377 379 381 383 383 384 388 392 396 400 404 407 411 414 414 414 413 412 412 412 414 416 414 412 409 404 397 390 387 388 393 400 405 408 410 409 405 399 390 378 364 347 330 318 307 299 292 287 283 279 277 278 278 277 277 278 278 277 276 275 273 272 271 270 270 270 272 274 277 279 280 281 281 281 280 281 283 287 290 294 298 305 310 312 313 312 311 310 309 306 304 301 298 293 291 290
325 328 332 332 331 332 333 336 340 343 347 350 354 358 361 363 365 367 371 375 379 381 383 384 385 385 388 392 396 398 400 403 405 408 408 407 405 402 399 398 399 401 404 405 404 401 398 392 385 380 381 385 390 394 398 400 399 395 391 385 376 364 347 330 315 304 295 289 284 281 278 278 279 280 279 279 281 282 283 282 280 278 275 272 269 268 269 270 272 274 276 277 277 277 277 278 280 283 286 289 292 295 301 304 306 306 308 308 308 307 305 303 299 293 290 288 288
328 330 333 332 332 334 336 338 341 345 349 353 357 363 367 369 369 371 375 379 382 385 387 386 385 386 389 393 396 398 400 402 405 406 404 401 397 392 388 386 386 388 391 394 396 394 391 386 379 373 372 373 376 379 383 385 384 381 379 377 370 359 344 327 311 300 292 286 282 280 279 280 282 283 283 283 285 287 288 288 287 284 279 274 270 268 268 269 270 272 273 273 273 273 274 276 278 281 284 286 288 291 292 298 299 300 302 304 305 305 304 302 294 291 288 286 285
331 332 333 334 335 337 339 340 342 346 350 354 360 366 372 373 372 374 379 383 384 387 389 388 386 387 389 392 394 396 399 402 404 404 403 399 393 386 379 375 375 377 379 382 384 384 382 378 373 367 362 360 360 362 364 366 365 363 363 362 357 348 335 321 307 295 289 285 283 282 282 283 286 287 287 288 289 291 292 292 291 288 283 278 274 271 270 269 270 270 269 269 270 270 271 273 276 279 281 283 285 287 288 293 294 295 297 300 303 304 303 301 292 289 287 285 284
336 334 334 336 339 340 342 343 345 348 349 353 359 369 377 377 376 376 380 384 385 389 390 389 388 388 390 392 394 395 398 401 403 403 402 397 390 382 374 368 367 367 367 369 370 370 370 368 364 358 351 346 344 343 344 345 345 344 343 342 338 331 322 311 300 292 288 287 286 285 286 288 291 292 292 292 293 294 295 295 294 291 287 283 279 276 273 270 270 269 268 267 268 268 269 270 272 275 278 279 282 284 285 285 289 290 293 297 300 302 302 295 291 288 286 284 282
340 338 338 339 341 343 344 346 349 350 351 354 360 369 380 382 380 378 379 383 384 386 388 388 387 388 391 394 395 396 398 401 402 403 401 396 389 381 372 365 362 360 359 359 359 358 357 355 352 346 339 333 328 327 327 328 327 326 325 323 320 316 309 302 296 292 291 291 290 290 291 293 295 296 296 296 296 296 297 296 295 293 290 287 284 280 277 273 271 270 268 267 267 266 265 265 267 271 274 276 278 280 281 281 285 287 289 293 296 297 296 292 289 287 284 283 281
343 341 342 343 344 346 348 350 352 353 355 359 364 371 380 383 382 379 380 384 383 384 386 386 386 389 393 397 399 399 401 402 403 404 402 397 390 382 373 366 360 357 354 352 351 350 348 345 341 336 329 322 317 315 314 314 313 311 310 308 306 304 301 298 296 296 296 297 297 296 297 299 301 300 300 299 299 298 298 296 295 294 292 290 287 284 280 277 274 272 270 268 267 264 261 261 262 266 269 272 274 276 277 278 282 283 285 289 291 292 291 289 287 285 283 281 281
348 346 346 347 348 350 352 354 356 356 360 365 370 375 379 382 383 382 382 384 384 385 387 387 388 392 397 402 403 404 405 407 407 406 404 400 393 385 376 368 361 356 352 349 347 345 342 339 334 328 322 316 311 308 307 305 304 302 300 299 298 297 297 297 298 301 303 304 305 304 304 305 306 305 304 303 302 301 300 297 295 294 293 291 288 286 284 281 279 276 272 270 267 263 259 258 258 261 265 268 270 272 273 274 275 280 282 285 288 289 288 286 285 283 281 280 280
354 353 353 353 354 356 357 358 359 360 364 370 375 377 379 382 385 385 385 386 387 388 390 391 392 397 403 408 409 410 411 412 411 409 406 402 396 388 380 372 365 359 354 351 348 344 340 336 331 325 319 314 309 306 304 302 300 299 298 297 297 296 297 299 303 307 310 312 312 311 310 310 310 309 308 307 306 304 302 300 297 295 293 292 290 289 288 285 283 279 275 272 269 265 260 257 257 259 262 265 267 269 270 271 272 277 279 282 286 286 285 284 282 280 280 279 279
360 360 360 362 362 362 363 363 363 364 367 373 377 380 382 385 388 387 388 389 390 392 393 395 398 403 410 414 416 416 416 416 414 412 410 407 401 393 385 378 371 365 360 357 352 348 342 337 331 326 320 316 312 308 306 303 302 302 302 301 301 301 302 305 309 314 317 318 318 316 315 313 312 312 311 310 309 307 305 303 300 298 296 294 293 292 291 289 285 282 278 275 271 267 263 259 258 258 260 262 264 266 267 268 270 272 277 282 283 283 282 280 278 277 278 278 279
364 365 366 368 369 369 369 369 368 369 371 375 380 384 386 389 391 391 391 392 393 395 396 398 403 409 415 419 421 420 421 420 418 417 415 412 406 397 390 384 379 373 368 364 359 353 348 342 336 330 325 320 316 313 310 308 308 308 308 309 309 310 311 313 316 320 324 325 323 321 318 316 314 314 313 313 312 310 308 305 303 301 299 297 296 294 292 290 287 283 280 277 274 270 265 261 259 257 258 260 262 263 265 266 268 270 275 279 280 279 278 277 275 275 276 277 278
365 367 369 371 373 375 375 374 374 374 375 379 384 388 391 394 394 394 394 393 394 395 397 400 406 413 419 423 424 424 425 425 424 422 421 418 411 404 397 392 388 382 376 372 367 361 355 348 342 337 331 327 323 320 317 316 316 316 317 318 319 319 320 322 324 327 329 330 328 324 321 319 317 316 316 315 315 313 310 308 306 304 302 300 297 295 293 290 286 284 281 278 276 272 267 263 259 257 256 257 259 261 263 265 267 269 273 276 277 276 275 273 272 272 273 274 275
366 368 370 372 375 377 377 378 379 380 382 385 389 393 396 399 398 398 396 394 393 394 397 402 409 415 421 424 425 427 428 429 428 427 425 422 417 411 406 401 396 391 385 380 375 369 363 357 351 345 340 335 331 328 326 325 326 327 328 329 329 329 329 330 331 333 333 332 330 326 323 322 321 319 318 317 317 315 313 310 308 306 304 301 298 296 293 290 286 283 281 279 277 273 269 264 259 256 254 254 256 259 261 264 266 270 272 274 274 273 271 269 269 269 270 271 272
369 371 373 374 376 378 379 382 385 387 389 391 395 399 404 404 404 403 399 396 394 396 400 405 410 416 421 424 426 429 432 433 431 430 429 426 422 417 412 408 403 397 392 387 382 377 371 366 360 355 349 344 340 337 335 336 337 337 338 339 338 338 337 337 337 337 336 333 330 327 325 325 325 323 321 319 318 317 315 312 310 308 305 302 299 297 294 290 286 283 281 280 278 274 270 265 260 256 253 253 255 257 259 262 266 268 269 272 271 269 268 266 266 267 267 268 270
372 374 376 378 379 380 383 388 392 395 397 397 399 404 408 409 411 410 405 402 402 404 406 409 413 418 422 426 429 432 435 437 435 434 432 428 425 421 417 413 407 402 397 393 388 383 378 374 370 364 358 353 349 346 345 346 347 347 348 347 346 345 343 342 343 342 339 335 331 329 328 328 327 325 323 320 318 317 315 313 311 309 306 304 301 298 294 290 286 284 282 281 279 275 270 265 261 257 254 252 253 255 257 259 263 264 265 265 268 266 265 265 265 265 266 267 268
375 377 380 382 383 384 390 396 400 403 403 400 403 410 411 414 417 417 412 410 410 410 410 412 415 420 425 429 433 436 438 440 439 437 434 431 428 425 421 417 411 406 402 398 394 389 386 383 380 374 367 362 358 355 354 355 356 356 355 354 352 350 348 348 348 347 343 338 334 332 331 330 329 327 325 322 320 318 316 314 312 310 308 304 302 299 296 292 288 286 284 283 280 276 272 267 262 258 254 251 250 252 255 259 260 261 262 263 265 264 264 264 264 264 265 265 266
378 381 384 386 387 389 395 400 403 406 406 405 411 413 415 418 421 420 416 415 415 413 412 414 415 419 427 432 436 439 441 442 441 439 437 434 431 427 424 420 415 410 406 402 399 397 394 392 388 382 375 369 365 363 363 364 365 363 361 358 356 355 354 353 353 350 346 341 337 334 333 332 331 329 326 324 321 319 318 316 313 310 308 304 302 299 297 294 291 289 287 285 282 278 273 268 263 258 253 249 249 251 253 255 256 258 259 261 261 263 262 262 262 263 263 263 263
382 385 388 390 391 393 397 401 405 407 408 409 415 417 418 420 420 418 418 419 418 416 414 415 416 419 427 433 438 441 443 443 442 441 438 436 433 430 427 423 418 413 409 405 403 401 400 397 394 388 382 376 372 371 371 372 372 369 366 363 361 360 359 358 356 354 350 345 341 338 336 334 333 330 328 326 323 320 319 318 314 311 308 305 302 300 298 297 295 292 290 288 284 280 275 269 263 257 251 248 247 249 251 252 254 256 258 259 259 261 261 261 261 261 260 260 260
385 387 389 392 394 395 398 403 407 410 411 415 419 421 422 422 420 418 419 422 423 420 417 416 416 419 425 431 437 441 443 443 442 441 439 437 434 431 429 426 421 417 412 408 404 403 402 400 396 392 387 382 379 378 379 379 377 375 372 369 367 365 364 363 360 357 353 349 345 342 340 337 334 332 329 327 324 322 321 319 315 312 310 307 304 301 299 299 298 296 294 291 286 281 275 269 262 256 250 246 246 248 249 251 253 255 257 257 257 259 259 259 259 258 257 257 257
386 388 390 392 394 396 400 405 409 412 415 418 422 425 426 425 423 422 423 425 427 424 419 417 416 418 422 428 435 440 443 444 443 441 439 437 434 432 431 429 426 421 415 410 406 404 403 400 396 394 391 388 386 385 385 385 383 381 378 375 373 371 369 367 364 360 357 354 350 347 344 340 336 333 330 328 326 325 323 320 317 313 311 309 306 304 302 302 302 300 297 293 288 282 275 268 262 255 250 247 245 246 248 250 252 254 256 257 256 257 258 257 257 256 255 254 254
387 389 390 392 394 398 402 406 410 416 418 421 425 429 430 429 429 431 431 432 432 428 423 419 417 419 423 428 434 439 443 445 444 442 440 437 435 433 433 432 428 423 417 412 409 407 404 400 397 396 395 394 393 392 391 390 389 387 383 380 378 376 373 370 367 364 361 358 355 351 346 342 338 335 332 330 328 327 325 322 318 315 312 310 308 307 305 304 303 301 299 295 289 283 275 268 261 256 251 245 244 245 247 250 253 254 256 257 256 256 256 256 255 254 252 251 251
388 390 392 393 395 398 402 406 410 418 421 425 428 432 434 435 437 440 440 439 437 432 426 422 420 422 425 430 435 439 443 446 445 443 440 438 435 434 434 433 429 424 420 416 413 410 407 403 400 399 399 400 400 399 396 394 393 391 388 386 384 381 378 374 371 368 365 362 358 354 348 344 340 337 334 331 330 329 327 324 320 317 314 311 309 308 306 303 301 299 297 294 289 282 274 267 261 256 253 246 245 245 247 250 252 254 255 256 255 254 253 254 254 253 251 250 250
389 391 393 395 396 399 402 406 415 420 425 429 433 436 438 441 444 446 445 444 440 435 430 426 425 426 429 433 437 440 444 446 446 444 441 437 435 435 435 434 430 426 423 420 417 413 409 404 401 401 403 405 404 401 400 399 397 394 392 390 387 385 382 378 375 372 369 365 361 356 351 347 343 340 336 333 331 330 328 325 322 318 315 311 308 306 304 301 298 295 293 291 287 280 272 265 260 256 251 248 246 247 249 251 252 253 253 254 253 252 251 252 252 252 251 249 249
390 391 394 396 398 401 404 411 415 420 426 432 435 438 440 443 446 447 446 445 443 439 434 430 430 430 432 434 438 442 446 447 447 445 442 439 437 437 438 435 431 428 425 422 418 414 410 405 402 402 403 404 401 399 402 403 401 398 395 392 390 387 385 382 379 375 372 368 365 360 355 350 346 342 338 335 333 332 329 326 322 318 314 310 306 304 302 299 297 294 292 291 286 278 270 263 259 254 252 250 248 249 251 252 252 252 252 252 252 251 250 250 251 251 250 249 249
392 393 395 397 400 403 408 411 415 419 424 430 433 436 439 441 445 447 447 445 444 442 438 436 435 434 434 435 440 445 449 450 448 445 443 441 440 440 440 437 433 430 427 423 419 415 411 407 405 403 400 399 399 399 403 405 403 401 398 395 392 390 387 384 382 378 375 372 368 363 358 352 347 343 340 338 335 332 328 325 321 317 313 310 307 304 301 298 296 294 292 290 283 275 267 262 255 253 251 250 249 249 250 251 252 251 251 250 250 250 249 249 250 250 250 249 248
396 396 397 398 401 405 409 411 414 419 423 427 430 432 435 438 443 446 447 445 444 443 442 441 440 437 436 437 441 446 450 451 448 443 441 441 441 442 443 440 435 432 428 424 421 418 414 410 408 406 402 399 400 401 403 406 405 402 400 398 395 392 389 386 384 381 377 374 370 365 359 354 349 345 343 340 336 331 327 324 320 317 314 312 309 305 301 298 295 294 292 288 280 272 266 260 253 251 250 248 247 246 247 248 249 250 249 248 248 248 248 248 249 249 250 249 248
398 399 398 400 403 408 410 412 414 418 422 425 427 429 431 435 439 442 444 445 445 445 445 445 442 439 438 440 442 446 449 450 448 443 439 440 442 445 446 442 438 434 430 426 423 421 418 414 413 412 406 403 403 402 404 406 406 403 401 399 396 393 390 387 385 382 378 374 370 366 361 356 351 348 345 341 335 331 327 324 321 317 315 313 310 306 302 298 295 294 291 285 278 272 265 255 251 249 248 246 244 243 244 245 247 247 247 246 246 246 246 246 245 247 248 248 247
399 400 400 402 407 409 411 413 414 417 420 423 425 426 429 434 436 438 441 444 446 447 448 446 443 441 441 442 444 446 449 451 449 445 441 442 445 448 449 447 442 437 433 429 426 424 421 419 417 415 410 406 405 405 405 406 406 405 402 400 397 394 391 388 385 382 378 374 371 367 363 359 354 350 345 340 335 331 328 325 322 319 316 314 311 307 303 299 297 294 289 283 277 271 259 254 251 248 246 244 242 241 242 242 244 245 244 244 244 244 243 243 243 245 246 246 245
399 400 401 403 408 409 411 413 414 416 418 420 421 423 426 431 433 435 438 442 446 447 448 447 445 443 443 444 446 448 451 451 448 445 444 446 449 451 451 451 447 442 437 433 429 426 424 423 421 417 413 411 409 407 407 408 407 405 404 401 398 395 392 389 386 382 377 373 371 369 365 361 357 351 345 341 337 333 330 327 323 320 318 315 312 308 303 300 297 292 286 281 276 270 258 253 250 248 246 243 241 240 240 240 241 243 243 242 242 242 241 240 240 240 243 244 244
400 401 402 406 408 410 411 413 413 414 415 416 418 420 423 427 429 431 435 440 444 447 449 450 448 446 445 447 449 452 453 452 448 446 445 447 451 453 453 453 451 446 440 435 430 427 426 426 424 420 417 415 413 410 409 409 408 406 405 403 400 397 394 390 386 381 376 372 372 370 366 361 357 352 347 342 338 335 332 329 325 322 319 315 313 309 304 300 296 290 284 279 275 263 257 252 248 246 243 241 240 239 239 239 240 242 243 242 241 240 239 238 238 239 241 242 243
