NCOLS 99
NROWS 57
XLLCORNER 794888.315279
YLLCORNER 8932430.27531
CELLSIZE 30.5 
NODATA_value -3.4e+38 
622.253776027775 635.235521985222 651.081303448424 669.909417813527 688.032932937253 704.190450423857 718.38456497891 736.228117968464 756.261186308296 775.453759635434 792.654356156622 806.053047132337 814.537985803568 819.06758912224 822.251575864172 823.48852779938 822.726896206017 819.150071671698 815.151229940694 811.253107375719 808.15761280766 806.330976602745 806.317747447918 809.996490470057 815.949799641549 822.225339877715 829.09376457532 833.575833166271 834.707008998458 833.001574137383 829.961402915768 826.110390290676 822.205588535974 820.159281800105 819.423533613419 820.401013433271 821.757475824016 823.14867078361 823.358556206956 822.272118304924 819.506726375359 813.838137071062 804.543722984277 794.383285882681 782.621272228648 770.129582779712 753.90567893706 738.32151109987 725.259317391208 713.320593171063 703.872565529389 699.585556891533 701.800889172952 710.834128138062 724.635763745924 737.483537389209 747.044460349273 751.58986841202 750.619280023565 747.047561770828 740.49919818202 730.056459217378 715.001653746649 698.196773868577 684.972175611558 676.693783385113 670.223275127714 665.25098814036 663.151789943192 662.64541181876 664.649332332336 665.986745234693 665.441085353188 663.207959046106 661.208304587963 659.744950131414 659.390012306198 657.692632278764 654.393786450105 651.295204041049 648.19968771456 642.676697567097 635.053708201994 627.532444614692 619.93818680753 610.81159360186 600.596239226194 591.191550988147 580.651204426315 569.34571167371 557.312434771044 543.352707736024 529.291966290331 515.242095915728 502.099333230656 490.862567727422 482.299997976867 473.325931840088 463.376435447901
616.345023909764 631.265334696121 648.169645476651 667.081511297079 685.150971078696 699.457765545303 713.496201697866 729.529791584474 747.598361727273 764.860015303418 781.078015785135 792.611790434788 800.038939347126 805.172910438743 807.548013439926 808.727108474902 807.957558035514 805.878556894937 802.080482259924 798.983984518573 796.070006003782 793.320751154603 793.256037892589 797.890225465818 803.911705460069 810.758111440247 817.082535849869 821.308031262058 822.583690077143 821.585830089253 818.781740827319 814.93093198918 811.719867881343 809.026509786811 807.317021932139 806.880073090362 807.896978109804 808.342437981971 808.478430650201 807.660754464561 805.550138731005 799.269320980598 790.234447145944 779.773516641207 768.594832629453 754.613057952981 736.734688953186 720.139332166714 706.46559860071 695.662041907977 687.816147799747 683.681907173338 683.90967064086 691.354727234552 704.530937946634 717.184587938077 727.517529675555 732.620461072254 732.25766250379 730.048171725731 725.420514557977 718.285813352966 703.961853785205 685.800108890518 670.176650920347 660.355645579611 653.736801647424 649.173709440093 646.224218378276 645.272898284487 645.011234803809 644.732288601524 643.418604266658 642.003977430509 640.722380074786 639.847178882048 639.004549999263 637.6053371267 635.22280483512 633.316482733997 631.458577765296 628.431467210121 624.08955636602 620.181493508312 614.440714611007 607.266821695094 599.034541522247 589.48043204265 579.518108591258 570.082642545328 560.666956718382 549.387550181655 536.078177173964 522.322381720505 508.962551423098 497.486670372056 488.025035307159 479.186007877329 469.24911524953
611.398873485418 627.370997365356 644.351694979417 661.440661086923 678.523762423559 694.526031265314 709.546427005333 724.631355330301 740.759764557282 754.260657332764 766.73883495426 777.053843463017 783.468722389359 788.652127982868 791.766298210604 793.812271413618 793.069494911826 791.236264100884 788.260914269694 786.163494061977 783.308174496682 781.195035039367 781.954978557474 787.594258824038 794.421732795879 799.972220919817 805.279352703713 809.435387480903 810.687434953175 810.610882846546 808.561209982336 804.735492849425 800.360621941362 795.990063064579 793.964615201799 793.696020005874 794.056490776536 794.843969968678 794.331124141122 793.458376722704 790.986886372273 785.617644468521 777.539369538065 766.792115856764 755.281514080212 739.384505764406 718.89033192767 701.219534788899 687.734027279805 678.244785472785 671.798101524365 667.778256791077 667.657896475994 673.808026494614 685.462520340877 697.073362932974 706.799317531624 713.263353980727 714.301893077902 713.595913982676 710.894372549017 705.202962864186 692.782795666443 674.741649803738 656.820354076879 645.498572436676 640.173459558951 636.20660174737 632.310023910801 629.437596598624 627.494810859671 626.13952085318 625.235592809593 624.361526285257 622.557190248659 621.61343247611 620.371589672073 618.756800362324 616.922604383599 615.418051511483 613.586771038361 612.059550236879 611.189335849946 610.007691237329 607.841365094304 603.371545226489 597.448192100187 588.670188600224 579.027187783141 570.623670882496 563.132751965466 553.828491539423 542.494260784057 529.569361848115 515.60399861905 503.179843414934 492.970312633349 484.778375941923 474.693733566825
605.538650315661 622.518474306171 640.482030508512 656.618832333921 673.616786035626 689.687196532339 704.758300450751 719.792073269109 732.249786720227 742.659572259062 752.075374865847 760.439062324596 765.803377141236 770.946471763807 774.166067648217 776.346262878313 776.431516008296 774.641316456426 771.816544233616 769.908071925242 768.665908815552 768.377823035676 771.746737916729 777.711606586504 783.983708312447 789.120837356235 793.460554883809 796.826036317525 798.756538323333 798.930302153289 797.116207989868 793.303533838432 787.747398168915 782.816518268351 780.77746159912 780.784130491571 780.885773097957 781.279261883033 780.452532182724 779.562381648761 776.771455413262 771.981960472871 764.865464991774 754.768545255541 741.132335002498 723.216599531837 701.549591787056 684.065110270904 671.541917715212 662.484604783682 656.445767237092 653.010799105134 652.937587409999 658.184560715757 668.996111945073 679.587649215326 687.246039060052 693.398993621388 695.835966272306 697.083494524739 695.873085467411 691.209800321235 679.724256537118 662.646692559803 643.841623699136 631.094312006831 626.709390775367 623.251796598021 618.958774845273 615.459261761225 613.060006876608 611.545355020934 611.006428236376 610.126569942058 607.9044723763 605.807296430826 603.195140944919 600.351606058994 598.082325462785 596.804142046791 595.335887661908 594.770303321993 596.442108995746 597.609784962992 599.925815809157 599.759327308159 596.605524065003 588.840037589887 579.895617604605 570.891053270857 564.424648146883 557.04704669947 547.695824957619 535.383371509689 521.674227448755 508.350041258034 498.081517005518 489.483550026978 478.635513108826
600.604495635303 619.569209499879 637.612576737641 653.687312912058 668.845152154798 683.945235485394 698.988728516058 712.246743012127 724.33998297203 731.831823942604 739.125319023847 745.478596934851 750.632458399938 754.058551222838 757.198337665817 760.191766490845 760.410745250406 759.416103463657 757.401551966481 755.50587105417 755.370892146099 757.029889965141 760.256907130442 766.249330237988 772.340940507955 777.468998924073 780.85488576466 783.963800498922 786.829103100472 787.026177746122 785.19633726236 781.367913555259 776.933300803549 772.030682804527 769.311135213112 768.616941984348 768.01759773706 767.43389711753 766.556534737903 765.66638658496 762.225491563192 756.773961992303 750.577013356068 740.852642778817 725.585958774696 706.267677002464 685.687770455696 669.226102968192 656.573258233055 647.533508581464 641.518339286821 639.050496934667 639.591290532755 644.487499721955 655.307326957888 664.414755179877 669.13379519969 673.740678734951 677.454603059801 680.156333693898 680.421356510957 676.736291819934 665.717145996745 649.105136683797 630.771625019403 617.600348779005 612.813119368225 609.849634496228 605.063998675056 602.071457805724 599.586785428005 598.606640657171 599.045079016509 598.21465668516 595.042926212877 590.079476844499 585.784509284056 582.492324345235 579.614314562322 577.701054577704 576.787083002823 577.514818353474 580.822208164002 584.876298232648 590.208745007102 594.009590490461 593.540667109015 588.71361633387 580.765812006922 571.811749704566 564.434152542189 558.114425789421 550.4682719902 540.131278987947 527.495547040013 513.985224153473 503.731707537976 493.494778465402 481.934838727169
594.806091696831 615.743335114392 635.689236874326 650.856645064417 664.045990705013 676.318750202763 689.517512017378 702.594525216248 712.924125913264 720.087612876158 725.443950956048 731.532933122515 736.664095327602 740.66400812024 742.949728621258 745.208875664239 746.19981909943 745.356249218575 744.296148779352 743.216163089389 744.066933510017 745.33968350273 749.155999017235 755.179102072644 760.506002063248 765.604217390645 769.495233528968 772.602187169253 774.961578292565 775.122053549812 773.986285754669 770.858479163771 767.654414762527 763.466105457826 759.810665483829 756.783588627212 754.485299572848 752.895605787989 751.34377769478 749.807599544944 746.651999119335 740.869097278626 734.996401668373 725.87168213282 710.226140432099 690.491644068824 671.786242733242 655.21618450154 642.199687083607 633.165800840861 627.166470150537 624.034673264993 625.003553852002 629.974710866229 639.81919210772 648.031542846674 651.875005216794 655.988155784026 660.612202640232 664.281953735575 665.500863615978 662.762960144611 653.12136480496 636.957636620529 619.104446140498 605.975605883689 599.421589008054 595.534025885332 590.701974532897 588.140871590806 586.226108161941 585.684269879659 586.329734408738 585.135055970536 581.003513805621 574.613745572653 569.303888973755 565.020186811374 562.09057284278 560.177375310413 559.587355678774 561.900515679387 566.244688837232 572.872823048666 579.289655907668 585.011113414487 587.817881759065 586.238435936732 581.000662557277 572.704716638924 564.676068354742 557.37837969812 549.901616874718 540.774352737569 529.602330995717 518.064387741993 507.96891390078 496.815806897028 482.589154968024
588.99878465249 610.037822245001 630.090101024222 646.117896005399 658.276283165894 669.413409883299 680.64009722268 691.008580993137 699.337878179711 705.588006334492 710.720100806019 716.819525497542 721.950635378008 726.082447738449 729.066472856052 729.535996155444 730.648751746887 731.430622654959 731.372629904748 731.284252869203 731.568509248855 733.433442776831 738.254229299653 744.314189412478 749.418354642081 754.502526536547 759.347134779586 762.461152073558 764.559978852131 763.965939213522 763.058174140378 761.589850067936 758.693899512486 754.104685644053 748.815329522153 744.209149867098 740.610584684272 738.026962653368 735.483538979988 733.592686471828 730.744509821027 725.570897855931 719.707163216353 710.907704157353 695.817573020531 677.240292860638 659.318781887038 642.390660508426 629.375490546272 619.798869323055 613.247785088327 608.740090064684 609.156034730137 613.61465842656 621.56645448304 629.710224754032 635.49505969218 640.661065634208 645.769815214527 649.429654650344 651.101759227964 650.258141837243 642.536573099693 627.338867005186 609.942095194115 596.852862459941 588.317664984175 582.431133470968 577.077175683168 574.242081554002 572.718015221866 572.761808630966 572.483505252809 571.026700510743 566.623248670682 560.414883180883 554.15525786766 549.214086545334 545.912564610098 544.304387500923 544.667057186843 547.660733823419 552.983437400145 560.964888353656 568.386278887229 575.763394399813 580.525095645573 582.004468594541 579.060078715929 572.75871679718 565.086178643886 556.873141578102 547.925515358215 537.989497038021 528.75139574556 519.018470423341 509.244635866572 497.169132595473 481.185396917782
582.264910227395 602.370215507171 621.495984866653 638.497517457198 651.495342480051 661.651042627101 670.908809760025 679.198968053573 685.527941797405 689.889480781034 695.006999205259 701.122090714804 706.253148490146 711.226327764715 713.524949149854 714.494625891769 716.427130465821 717.544054299053 718.464716387967 718.574611997901 719.461438807353 721.54106260915 726.598716307375 732.678557165149 737.782669309951 743.620073282139 748.713945102131 752.554662363831 754.655620662332 754.489281534569 753.570257473532 751.943294068226 749.041779433293 743.47047069001 736.889537740849 731.958210145514 728.037127698897 724.465301531899 721.556773885299 719.641790335314 717.388578362835 712.53189779783 706.035817112963 696.582748542451 682.395354868959 665.160558126661 648.430638140278 632.089679442603 618.531334540652 607.427775778812 599.888881018277 595.476794840832 594.409571809147 597.35645864984 604.387022961843 612.486519850245 620.133184040939 627.269643256526 632.418148426896 635.567858284385 637.693848409813 637.846071435055 631.582562574703 617.792378791892 602.267017215048 590.116322820991 580.652502541631 572.392026584466 565.995003322162 561.608167558975 560.206866156472 560.260737624841 559.7600576274 558.858157539246 555.395552337738 548.930722296872 541.670302110702 536.340904496319 532.386618600581 531.057044813953 532.07639187416 535.104921149889 541.098963742011 549.414914068165 557.508505207046 565.316797643116 571.467483799894 574.218837959377 573.925566163276 569.394109943967 563.005586404893 554.596103207765 545.418725151188 535.69593056362 525.731398142478 516.522314053963 507.549273654458 495.104590479727 478.470861728484
574.532439562427 593.647533808896 610.855549858172 627.008938649013 640.091165368917 650.177583552628 658.371387670103 665.582447182646 672.566397239717 676.666472380555 680.902476478438 686.153513664194 692.117018389871 696.384793933101 699.334906521764 702.093814511074 705.003619279023 706.092467868311 706.378238582265 707.264095813879 708.349033733531 710.431004362326 713.96940965989 719.299420813335 725.159483413374 732.001223068181 737.837264975804 741.931036409196 744.027589124681 744.836858621824 743.92624654945 742.01179637189 738.410758022326 732.515901599899 725.612087767107 720.683663272582 716.762640036976 712.850066542863 709.928012960333 708.005268276777 705.468590720735 700.588385191114 693.705822409899 683.835920393149 669.97973541647 654.28176104364 639.519293304052 623.601898830266 609.084304611689 596.021753329562 586.954315498745 582.987574685386 581.59016368837 582.592957628744 589.098326749878 596.685547280014 604.800153543912 612.922702573343 619.056515548512 623.160312582588 625.286827898662 624.043853940743 617.795350497452 606.80882559994 595.560828518671 585.456800121029 574.235511948973 563.449073716457 555.641960985069 550.278945129788 548.304196496635 548.735473239199 548.830004011443 547.938244437826 545.424769332575 539.580285023271 532.386305506301 526.421313028787 522.114799316682 519.814627810158 520.504316708498 523.533106274054 529.543049913295 538.265596792404 546.097560855528 552.945967717251 559.072792195909 563.234550788928 564.671552718239 561.396132638331 556.987719630446 550.57698646997 541.165018025473 532.399474991149 522.670060381247 512.703377858842 503.700414772209 492.965469243065 477.314811049449
564.866200510689 582.989356526048 599.130341265042 613.385277024611 626.459541645186 636.536891000264 643.755216014109 650.861756047394 657.093867998242 662.066347398639 665.341125799456 670.465383775977 675.751740837288 681.540858005931 686.306188847072 691.035124215866 694.916952833793 696.785689943556 696.852805250317 696.355309516187 696.664010515977 697.227819377457 700.347029492688 706.209972075213 712.315129756451 720.150176469388 726.965857802682 731.045966127393 733.128003743365 733.505112396455 733.297034594609 731.381463306411 726.784024600026 720.879973679889 715.313337697138 710.393133257202 705.81961605898 702.550961947541 699.629780187681 696.450197405368 693.544618227183 688.644871614909 682.350923168724 672.451357156926 659.144159487714 645.394326017414 630.317807770185 614.405471173335 599.484281282463 585.014000255544 575.078785734322 570.598991699867 569.147045769157 568.722408604366 573.76804345094 580.876296774419 588.49862529861 596.140391407093 604.236720912839 610.323584642745 612.929012332731 610.536064854712 603.675917669564 596.104644668554 589.039829381204 579.275509286084 565.559035030321 553.628510677642 544.682493293787 538.734347240205 536.389363863324 537.065539073064 537.175816814898 536.650009948979 534.413704374778 529.255056475564 523.688370626079 517.77416742524 512.839080765797 510.198173877645 510.528749578404 513.546118149264 518.981206887722 526.453008918572 533.280481649433 539.129399906726 544.719856483799 548.871758126716 551.03485942813 549.70459378898 547.069940778836 542.653345276129 535.441692235097 527.924307768884 519.392572209103 509.643938133367 500.653067967304 490.873239489086 476.337392188279
554.124573174639 570.36521805518 586.406728988441 599.58260117071 611.738757105477 620.928214053089 628.020115867404 633.412723162075 639.520039374376 643.79841649583 647.811748992666 652.950441209155 658.117114773708 665.077293854595 671.829552810163 677.750993326121 683.444274630903 687.868322728003 688.690047102803 686.968075727605 684.757801881272 684.888006136735 688.007229364332 693.369614390419 700.22172135514 708.301906400694 715.369459421832 720.149595269444 722.222255080219 723.001196444537 723.061237252701 721.10800424923 715.509075927198 709.599812832508 704.027053446364 698.474717335611 693.592064548294 690.69478336452 687.791238599631 683.896570358595 680.377986621916 675.48404532056 669.579099531882 660.271394583288 648.537473471104 635.616644791133 619.70836351042 603.803221683561 588.896144893651 574.541562642301 564.632647837545 559.189432022231 556.239642638818 555.345881405258 558.440183199263 564.563082573477 571.693830049826 579.305145028265 588.426774483662 596.480324949305 600.507567964792 598.610959005271 592.597756480441 586.678050016831 579.484687445506 567.767906595582 553.309813251509 542.216125438639 533.304834818419 527.773092441751 525.225228709592 524.552689820947 524.642902402305 524.73710195847 521.850606376776 517.952686289941 513.05549169545 507.480426729866 502.877031704479 501.240784771181 502.586690319655 505.344083314054 509.401810344086 514.903731048874 520.450384627715 525.297119831381 529.162991766282 532.791678868674 534.941360781221 535.097940587791 533.693916943474 531.25279101117 527.200416879374 521.883247889808 515.329354856465 506.756091867379 497.952157315014 488.965792846656 475.880882251407
543.335160829672 559.366530679658 573.610942155649 586.634791930424 596.927325164471 605.945323120799 611.311547485821 616.445783375415 621.671980207343 624.983917319459 629.154551095484 634.340117229959 641.162148502303 649.10876203257 657.017348181255 663.933124635799 670.811554077803 676.627661263358 679.19615143454 678.023755903738 675.886901773134 675.225281129463 676.139533892608 681.27023171665 688.366663699581 695.729732234113 702.805350732263 708.571133694181 712.032901835609 713.784939680267 714.49353459845 712.479194224616 705.864874742093 698.627282508888 692.052768418254 684.894216252949 680.035144929084 677.136556854144 673.620560082633 669.730820745857 665.230552985676 659.75448088672 653.86637873652 646.134692906225 635.813012230166 624.024895929521 609.23533554889 593.874976647723 578.96716112576 565.613439702995 555.714204400418 549.278699267205 544.866722659166 543.468309200362 545.083459164886 549.703963772874 556.33843133308 564.921813258961 574.020536668406 583.09207030998 588.149992420635 586.667462032402 580.888399902974 573.714496783846 564.835089011103 552.789949301725 540.130648493927 530.235438666753 522.117082507209 517.207105182571 515.286293698074 513.369662256949 513.092432097974 512.480986457588 509.921893602152 506.347826870551 501.7595513111 497.15599422875 493.536117836777 492.599315384055 494.660531526775 496.722668544699 500.505881325886 504.574790293826 508.383796937671 511.95570136514 514.805737884464 516.672840116721 518.324275175848 518.676195868747 519.007772762413 518.533102783907 517.826698535404 515.492407654616 511.114353543762 504.517283011582 496.882744284963 487.902424701672 473.799613794871
534.337123707655 549.430561887248 562.575321727055 574.668259603637 583.816603795521 591.098207040833 596.213459274644 601.272786075355 604.683604805405 607.847174480895 612.036430533017 618.053911277456 626.023458652215 634.946092054771 643.79855882385 650.897618079187 657.967067106808 663.955888297811 666.215822503372 666.058400317235 664.921257537074 664.022381644429 663.515794115893 667.979520995635 675.789546885981 682.888694029319 689.961661681255 696.027561547958 700.76804586478 703.519448526323 705.206305165605 703.814337411825 696.862995245219 688.913354425724 680.059720561259 671.603683329707 666.752552973071 663.832885629158 659.922441289042 655.398514584417 649.916461031825 644.625602908025 639.274416230013 631.766969290378 622.437606542676 612.601188248566 599.763475289124 585.371660884796 570.476658810825 557.608079969377 548.237803291917 541.321139163378 535.925580802388 533.54358954916 534.175165677791 537.81967897617 544.415891799729 553.483945841006 562.088777582687 569.779849811909 574.367131753327 573.401126979665 566.488129442135 557.197036689641 548.315739768611 538.645409733138 528.546570124305 519.05813603913 512.536019376894 507.641916983286 505.709335462526 503.43641096424 502.158272367967 499.912908944966 498.329638884295 495.731391814953 492.126846415494 488.514932417604 485.892187983302 484.968141189464 486.742438679919 489.085823694379 492.146294744216 496.19369138562 499.238863292835 500.803486046895 502.395649588225 503.248979497035 503.347719472185 504.442580436551 505.741391102004 506.824887824275 507.101247230594 507.357174508453 505.770620463274 501.323760410917 495.511015043237 486.531315988815 471.843071469615
525.484894176628 539.609099482832 552.565512315397 562.8309067437 571.802084209426 577.983768307207 583.048460145548 587.254357816021 590.396286102161 594.309450403435 597.697452681234 603.851005072701 611.25110133499 621.165360226429 630.987695505067 638.841747982746 645.837251212165 650.270713216797 651.544432452688 650.899090513457 650.024361900268 649.228898472252 650.669803860252 655.607236828238 663.663481539745 670.754825197252 677.812115147994 683.846782741257 688.211680392374 691.279217140477 693.303917466108 692.914336648979 687.871883371791 679.861302270296 669.330079938744 659.90669478584 654.453977784749 651.518606919598 647.583938712116 642.667652443241 637.399548727731 633.617001337693 628.603559479197 620.632621541904 611.163577713156 602.192793302713 591.276539169154 577.317255964942 562.451971607889 550.129047159797 541.238515509424 534.32119284606 528.440858889044 525.095180086409 525.23092146389 528.388570789743 535.485129575761 544.054320987574 551.189308391986 556.777524696072 559.912421587235 558.900482758145 552.374329362771 543.302429380991 534.404343025555 526.087312330147 517.200179154783 509.097968677271 503.205181411013 498.691173351357 496.402561505963 493.834409229459 491.561140837363 488.989463634026 487.413690677239 485.804464593403 483.488734857328 480.568870745865 478.648302528088 477.742556867773 478.835393489419 481.905133973737 485.494532940735 489.522592865559 492.286176441764 492.338026031633 492.164130224246 492.008761916893 492.091840136723 493.171751946894 495.03501540108 496.113307712564 497.191607815728 498.261226445277 498.487318614629 496.845824086996 492.165589879385 483.456775082318 470.710656740072
515.76823813017 529.701625052938 540.956997441005 550.997408868058 559.939669710641 565.940145215231 570.177780258686 574.270040489874 578.129741569425 580.645394028841 584.63401173722 590.010643469003 597.220223961057 606.607357772623 617.41339503925 626.250888220054 633.947871195391 637.905152039112 638.875480689128 637.224074249807 635.653234306598 635.591790621592 637.822548481779 643.051265455511 651.137590921435 658.905801852729 665.955226549271 671.992182824183 676.718518163987 680.402600484202 682.398951228266 682.342480376383 678.906468187248 671.497117113115 661.157029003144 650.129605054591 643.139419312237 640.211440286282 636.835514564435 631.915478250074 627.069681822626 624.054325036472 618.500533927919 611.034897004533 600.602251913849 591.152218195488 581.662712079949 568.754027743649 554.451562527164 543.096592304185 533.735616938553 526.834017296948 520.980751751101 517.639249524156 517.790846017094 520.957436288461 527.599617145103 535.583120776471 541.158756189466 545.270686044295 546.428896973791 544.990050145489 539.452230165875 531.917555421136 523.014842685567 514.123102180998 505.654320722924 499.140766659164 493.628257164489 489.717711063191 486.478813924595 484.540641922048 481.959730224814 479.699131369817 477.136268350935 476.207294802749 475.229312037858 472.325216331355 470.413660612837 469.262242963581 470.392823737569 473.770008835282 478.816575635607 482.847227515971 485.110494350435 485.375907941926 484.431293862282 483.502888831288 483.377176166695 484.439728544091 485.502287107847 486.561367901462 487.453499806676 488.52700732036 489.734493511609 489.746914549277 486.886193781183 480.144540600528 469.359755756821
505.019797397045 518.048260733955 528.260670909199 538.251323194356 546.421418943645 553.212993847376 557.313010823386 561.366245118704 564.623406815397 567.567755162128 570.960128171938 576.177475955539 583.393480171745 592.608139406796 603.647755898585 613.469009945461 622.115699149148 626.762531489062 627.729643923837 626.476553898536 623.929443431376 623.396592949472 624.929178080162 629.475343173057 636.954199904868 645.709064817224 653.517078595687 661.558551392945 667.854523011991 671.818114170745 673.751492946581 673.088020431354 670.634676621364 664.783736867755 655.330992678051 643.532472306719 635.145465661621 630.403008261656 625.643034980823 619.629059300729 614.830329960816 611.857512439063 607.0155282292 600.461706204079 589.618903012606 580.285994933237 571.765049505326 560.295221010909 547.467773750275 536.53938128988 526.198762214743 518.382921760358 513.037898336568 510.203987024585 509.960590812129 513.605431824289 520.157675658316 527.669386460964 532.636076928256 535.157913597786 534.703828239038 531.473827321285 526.116701320106 519.169524963443 510.682085329163 502.551296364688 494.71230057704 488.836314028584 483.959634468285 480.059463954827 476.542986737817 474.622186427268 472.678491236348 470.095853674646 468.210540158023 467.570921903076 466.569258190913 463.65612083017 461.452797139366 459.601474180693 460.261141355598 464.376806815483 469.43858609597 473.722952722055 476.748084059118 477.994989500781 477.485544570375 476.740026432732 475.838326836876 476.695927541763 477.57922883404 478.788212108914 479.026785664135 479.942222737591 481.794623311963 481.671496907713 479.808131443849 475.15210303171 466.451741922522
491.509818227812 503.661629973668 514.523549351753 523.700265873894 531.749390358971 538.723992258323 543.670332150086 548.536971365011 552.348401396496 554.684922483193 557.861032632525 562.34431033662 569.625041582066 579.583347103783 590.714317883491 602.178564763896 611.063076484941 616.64923198895 618.20959447628 615.745234986655 612.230057912061 610.729145570015 611.301544471867 614.928554485833 622.160081111064 631.295467165383 640.817034291529 651.134655340706 659.365398808503 664.512789062764 665.790684589755 664.797592213974 662.798819265878 659.43335541752 650.956579270642 640.265463432439 630.720784058908 621.738966904409 611.808089780232 603.406576315897 598.714774058969 596.948411667263 594.590876514656 589.519115396812 579.752527868448 571.403448550835 563.80839927022 552.816546903966 540.950869297558 530.479729633192 519.605297473592 510.348974787625 504.583220079067 501.332902655774 501.085644747205 505.319257889181 512.827439979226 520.225959151883 525.523907937731 526.976146985265 524.65896051494 519.274309809256 512.566904719446 505.643731439586 498.153613278607 491.238712637221 484.115027716594 478.223684749732 473.015988178605 469.161017453366 466.607159253415 464.686359610646 462.778722602517 461.177464735229 459.916555353368 460.221948292847 459.47201298153 456.765701834792 453.54900870996 450.869564680593 449.855893232991 453.250589230587 458.116003584185 463.149338635077 466.441681354803 468.915425945669 470.169175849932 470.582881995469 469.67436735335 469.735902113755 470.022724403968 471.880355395873 473.05251274073 473.123727198065 473.833447292446 473.030751361078 472.1748929879 470.099126604512 464.242832076959
475.967140429864 488.013840671633 499.050518360069 508.882871091745 516.92414890223 523.953852512968 529.891821104266 535.74222933193 540.506082336052 543.412560759749 546.568333325006 550.809295403715 557.3823544116 567.596378847912 579.463259548981 591.33720730287 600.213187455655 606.022592112739 607.766438004145 604.736356951327 600.245303610929 597.768518947694 597.372920592143 600.10348542523 607.396008556494 617.250507733708 628.0449610394 639.098405410293 649.262098347012 655.666577142609 657.251429701962 656.885878308841 655.529488249314 653.321994596134 647.066288061706 638.740793030316 627.991522099317 614.564504286652 599.473469905781 587.139095005857 581.454585441573 580.587968796113 579.606276891334 576.573446791382 569.763381751838 562.490717888356 556.837551853045 546.78405293496 534.885916227574 523.95341503966 513.041880357886 502.799934711137 495.597858865687 491.920581846355 492.637477798792 496.921156681916 505.004982235143 513.355988534629 519.136028235091 519.919550976939 515.846513907037 509.403636876355 501.137313151891 493.853120298901 486.953410680272 480.429046303753 474.501757029868 468.574476404099 462.749325861399 458.922782962101 456.994126328295 455.081227554948 453.524088134878 453.219299326603 453.606269809003 454.879632870983 455.103051211282 453.527743047448 449.205233671457 443.609332670582 441.058444084776 441.552572987869 445.020541077304 449.87288664897 454.008713672754 458.444130047302 460.938977466328 463.26929836357 462.730390678056 462.829097226031 463.883798499329 464.981450122747 466.950627935769 466.969466917957 466.19495453516 466.242169914481 466.211937247323 464.288462394598 460.310233597848
461.122290955394 473.937012964548 484.960959921715 494.904407150097 502.930041671631 510.022639021124 516.944439909131 523.770819707617 529.566378875632 534.108258647316 537.256295387154 541.482163897681 547.802931584316 557.265387990521 568.64548926163 580.495852155188 589.348242592587 595.126185370291 596.830694790314 593.765995767555 589.004515484216 586.189219245599 584.75834799728 585.910429112549 592.615565096232 602.852366979028 614.624454220736 626.38092630266 637.830768716112 645.241349950531 648.43724328564 649.585982190628 648.569663288281 646.497857686138 642.562899867071 635.869765391395 624.70610785554 610.668558503553 593.711051088488 577.574293031865 568.830965433042 565.810296114129 563.886250219981 562.327201301076 557.891649580447 552.658535405538 548.940984427297 540.771870974517 529.285319524641 517.370579431927 505.981178512728 495.264523331505 488.00611738281 484.317903289522 484.733031413583 489.048307595251 497.17138593092 506.068757903261 512.225442440264 513.369926924429 509.625725119334 502.858341258114 493.22304828243 484.964491155068 477.742772796321 471.807626707476 465.851832281736 459.599016699707 453.789680515856 449.978955211948 448.068642213251 446.522072941091 446.280222301152 447.634336068293 449.279684124367 451.505444895823 452.464635072548 452.186763669855 446.786395934167 438.734524064673 433.670378504372 431.189932463436 431.754513566554 435.237283157013 439.441692393456 445.27848471567 449.772229846481 454.087153350901 455.622048728853 455.884510907728 456.790112208292 457.903559680637 459.871920472198 460.068456408145 460.242982880342 460.290199634665 460.288325907099 459.233431316317 456.05605701922
448.841527626912 460.981718485321 471.990027116574 481.909977382607 489.992980369 497.906399161651 505.733145001608 512.799035045488 519.586469071583 525.271954100198 529.068659376226 532.601212257899 538.862058648087 547.413152337249 558.445660043721 568.97985293242 578.483299336259 584.290652596734 586.668836804537 584.226719042059 579.465358245034 576.562351483551 574.116852148118 573.903804032909 578.481175881454 588.80429686635 601.507231105175 613.604762650739 625.48231051623 634.514310157122 639.628093763441 642.070448471856 641.657758857735 640.183023428626 636.948915796179 630.071862382033 619.019209006103 606.332738318266 589.994227395651 574.604498198433 563.909418714153 556.978749301748 552.634038033534 550.55254393681 547.142061199055 543.753140020608 540.592597790674 534.261602402907 523.2385733072 511.255063777921 498.984202375135 488.755809404532 481.990061194049 477.847006917025 477.291890119971 481.994071577567 489.723064140638 498.633431316365 505.362338452761 507.458915812524 504.628929888845 498.025403718595 487.875545017416 478.667245112182 471.150690728499 464.838778756469 458.497837304212 451.592376347776 445.475023975443 441.643485889928 439.520056317653 439.291835789841 440.694552105861 443.062426838118 446.092788681096 448.99428761418 449.944631589313 449.374525022923 443.4846138834 435.134709551988 428.973223665955 423.732146529134 421.335324074612 422.174485384507 425.932488514096 430.90908887527 437.020153070473 443.182954510751 447.425997748934 448.74936304257 449.002853475954 449.975111010314 451.868981694711 453.175855527943 454.172846552974 454.221605438619 454.123576437893 453.022246049694 449.167967606101
437.781962896182 449.010459739952 460.003129356639 469.97931738972 478.884356982399 487.696126303916 495.752227535796 503.467325781529 509.731659105134 515.617884923825 519.600009405612 522.888036555079 528.470740751632 536.764875650682 547.086369265103 557.041198249821 565.520517169333 571.998122632414 574.704094033309 573.292727929126 569.823333114387 566.902447433638 564.101553266183 562.87484950834 565.871427868923 575.046330279455 588.119544064285 600.859606854923 613.407038593503 623.81852953034 630.807774817072 634.270982659157 635.33369003411 634.207326191932 630.959611348011 624.137863385535 612.385068004684 598.058584584825 582.452828368418 570.412915725075 561.149437634413 552.872876454198 546.588790362838 542.644441620696 539.274135169547 536.783021540848 533.626156838298 527.782920733699 517.153321349946 504.735817451968 492.456076931298 482.676268185155 475.078628392918 470.497503010165 470.428071921009 475.67280861121 483.226494823892 491.713205914917 498.12196829219 501.178479932935 499.222775865765 492.457978508986 483.506823437179 474.756882639737 467.77499916065 460.741852591264 453.125935128723 445.862335640228 439.081330882555 434.630153327102 431.960373246262 432.841369486361 435.259295799105 438.587785694373 441.861703067648 444.515132243922 445.417914834166 444.213743803012 439.590682668455 433.047138685751 426.049757991708 418.996657379165 414.069069517752 412.73500145496 414.551309414901 418.410109912676 424.402345167782 431.426104458247 437.347005862169 440.732036138404 441.866946740714 441.996607627947 443.191942353016 446.121787389567 447.118719850232 447.116366478514 446.179686469824 445.113805087952 442.113598494298
427.690851445963 437.935688045501 448.177493647568 458.248354040754 468.145028940932 477.922038649639 486.623623585171 493.701611154645 499.08269171436 504.882070457135 508.182691781867 511.402667769504 516.131950777175 524.358830432428 533.728826690927 543.058291753839 551.641524667146 557.714070812754 560.500823859357 560.177197669462 558.582566420792 556.284208083149 553.469545981775 551.948423129595 554.556450779692 562.547056580139 575.636454272159 588.725858536125 601.682242343852 613.095230380783 621.456737813507 626.476770519443 628.841147127244 628.286617995569 625.569403300666 619.152706519406 607.829435327975 591.807055653327 575.65952608357 563.522308967315 555.676920158642 548.717891351672 541.38652140906 535.66095087436 532.400611484846 530.763200046533 527.062292216904 520.331539463969 510.170364924305 497.781347926014 486.345504443813 475.684470300703 467.103108075911 462.606881842898 463.10722857454 468.465384959984 476.890357337734 484.769485374289 490.649994781804 494.274460198974 492.965496439058 487.519122954112 479.699433260582 472.717541310473 465.678832233817 457.92621477323 449.017241080335 440.8208649991 433.639492094261 427.662416421447 424.964415216357 425.264335414619 428.399560937272 432.474772148843 436.625794103968 438.842774029469 439.94536410423 438.836769546933 435.938075340854 431.007714035681 423.947360945194 416.106234356299 410.083836530243 406.186841105328 405.679844274629 407.641044134867 412.706320007578 419.569690528533 425.661955711452 431.474117400515 433.673745102839 433.952196080163 435.271003260394 438.09186502271 439.175239744029 439.071284491104 438.062968113986 437.008360171881 434.151010932456
417.737812834915 426.991032286986 436.351860501745 446.532981358455 457.42129314942 468.004901811182 476.161681559823 483.022602211592 488.047282204879 492.449281745545 495.549712318097 498.760101534084 503.217919602749 510.698112285504 519.162875180264 528.199481969699 536.360652933665 542.159726331684 545.035064801463 545.660624770735 544.743282412279 543.491023561906 542.022975632516 541.771894076131 544.951505697709 552.584222876291 565.155451478867 578.718221203406 591.132927790806 602.895290036392 611.7214360024 618.135959489341 621.995928534707 622.299757305861 619.490013754396 613.6952989285 603.796103097291 589.251179288137 573.000209158871 559.038359623138 550.275044520088 543.59948836191 535.139536647982 527.203131540516 524.034703796475 522.817836381054 518.603021816258 511.480874811724 502.276448634765 491.246555433602 480.200522445972 468.541001761682 459.934798592696 455.086989546389 455.58002772799 460.613938075912 469.298666384643 477.872863441013 483.702122487566 487.022606869377 486.492669780963 482.740504511291 477.346544700315 470.647014237132 463.152093437986 453.887043527868 444.89285605471 435.712786536556 427.547722525158 420.668445031871 417.763039161538 418.344067987951 421.511040493756 425.88890603497 430.779494045129 433.958680180283 435.775170311349 435.161495334824 433.230698940655 429.198805343079 422.308512982696 414.363578633749 407.161919075907 401.904907260038 397.933748879994 397.991233270296 401.921934542171 407.862498823506 413.935084300378 419.731260231905 423.596284852729 424.987599020764 427.065575365296 429.143559265934 430.984643792145 430.061128907337 428.207160139259 427.219837213614 426.200693257785
407.769192749659 416.030793471831 424.623683410015 435.535960426277 446.618102527629 457.434705499186 466.080144395742 472.826076770768 477.024790095407 480.328889679552 483.333575651783 485.895372410365 490.262317611686 496.758761632217 504.353468035473 513.268920451234 520.535651153394 526.311127584018 529.204099591173 530.098418074846 529.300224866363 529.158341500355 529.689216876805 531.415821906511 536.150593855265 544.410479246392 557.17320450381 570.456507489834 582.447301338532 593.64210565541 602.552077964051 609.912648965275 614.530356009923 615.150763376406 611.87145817935 605.581352775866 596.824312375882 584.811220107773 571.488761330325 558.32121149369 547.457786308311 537.909189186315 528.024483009421 519.114245293965 514.91078536292 512.345293688351 507.799940653715 501.650820751253 494.014606166755 484.860515244904 474.585405739454 462.897503117747 453.836759377991 448.100645511597 448.169453059645 452.291619895252 460.525239367622 469.922954394765 476.391867148773 479.573837939177 480.294861837312 477.904030024705 474.046177448159 467.87914257796 459.713489188571 449.816607002134 440.476959331432 430.589015046743 421.440258582252 413.628770503326 410.147348123307 411.156853519348 414.412897729637 419.449672610174 424.218730015974 428.33054298271 430.501991657936 431.407781746825 430.695311448282 427.838784629774 421.871174861239 413.94783554783 404.949512632518 397.73335160206 391.959399180955 390.072074052209 392.241150054986 397.139302336176 403.124289970751 408.109984488411 412.085699378749 414.983678285301 417.16147727657 419.231021586341 421.060104467759 421.046010863562 419.195106001272 417.494220749063 417.336785690507
398.599403412635 405.965621755539 414.324125610443 424.710216543446 435.792370045406 446.61921337621 455.447381803047 462.246375334412 466.764469235954 469.192527675693 472.151356593945 474.396314282159 478.011929748397 483.605955083111 490.778620386222 498.409474469393 505.314720268307 510.378202723503 512.66579478673 513.634138894158 513.547113359159 514.603011004703 517.688134597006 521.336527564606 527.479100206131 537.238229351299 550.288589734153 563.218602535617 575.077777803894 585.372943604087 594.243885320533 601.375469691516 605.473034440554 606.077559819795 602.684783484393 595.711369366317 588.097625835546 578.806290820808 569.746057266066 559.114009953654 546.819146614275 532.465660690579 519.697572872305 512.185781713339 507.972411953825 502.210225832393 496.880303255891 491.783909339574 485.189641566465 477.531672482533 468.307346582 456.92006155439 446.952727016833 440.597919049093 439.410519718352 443.042302067541 451.186873039271 459.824837224344 467.508573415309 471.65571996756 473.166350552465 472.348234820767 469.40732573401 463.526147622542 455.386359217512 445.668349703742 435.405926388765 425.159200102459 415.064664320329 406.623985771773 402.865601054925 403.244587326403 406.46370903068 410.960906272772 414.907932414271 419.581617403753 422.490293124433 423.773272860359 424.674418802688 423.586194184686 419.004843707634 412.097167466116 402.413193063739 393.780705099343 386.953425349625 383.325876734104 384.298876595786 387.520015323838 393.369304396193 398.339212240584 402.221864162454 404.471316779399 407.342051184581 409.229224904976 410.230230498899 411.073359470887 410.285362114834 409.418183320792 408.530793796001
390.287455768615 396.108306192343 404.456651624394 414.5608856841 425.071954025895 436.545220268173 445.452573979813 452.806310308659 456.928730689207 459.776436242118 462.711801218194 464.818680037294 467.442796905222 472.081203606578 478.468803422148 484.780866607028 490.345475835189 494.482377970958 496.475438593375 497.555325165856 498.544896001234 501.251381654953 506.150024008659 512.297462391292 520.038486523583 530.929039936335 543.446906124111 556.292673223564 567.576129256789 577.359795264578 585.095636988532 591.299227445923 595.004249188885 595.585071284264 592.304774427751 586.457062652549 580.452864808478 573.603193809466 567.031020501202 559.07008730583 546.833096470583 529.17706845953 511.612615260517 503.984290246668 500.912573434656 493.628261837372 487.869247104668 483.143447491068 476.596651484141 468.677570268645 459.568087086511 449.056928297852 438.913486835379 432.065336584722 429.46839171768 432.719538677712 440.155207298301 448.211795600093 455.730502944657 461.291898984506 464.785207115704 465.828402077908 463.847532787492 458.853037407985 451.040938455087 441.836833051456 430.797390936458 419.294390165682 408.261195316937 399.296827029783 394.900183682789 395.024506301614 397.637360818766 400.488439427954 403.441970184949 407.018199236761 409.836314287628 411.850095178242 412.908040139678 413.166233356464 411.165407160122 406.363243212563 398.154847206684 390.360541946554 382.860754831419 378.312496718511 377.522071657545 379.648848843839 384.598313238384 389.552433714344 393.507256942412 396.45281213227 398.324034298878 399.211694874968 399.235891237533 399.482321835152 400.461760351848 400.581316774774 400.552274673969
381.654840385023 387.717896494133 395.284902068014 404.801394253307 415.708875786801 426.804690147533 436.379456885151 443.98231755103 448.643526065649 452.224945609716 454.519851637437 456.581623648136 458.925552291244 463.071957806638 467.756616064761 472.427869990329 476.707856063384 479.957529939082 481.92710693104 483.216562464984 485.795684466914 489.885537258674 496.496284427826 504.937031663398 514.368717195712 525.021381212495 537.119472478103 549.303418324041 559.561371873183 568.150166229428 574.52794109972 579.787255154081 582.929114164794 583.172075548067 581.078481299729 577.221819653879 573.269636466064 568.791373187219 563.700522754996 557.261252534953 546.692468073508 528.524144873468 507.380938002128 496.184126055597 491.995108962557 485.198019552922 479.529995834885 475.157867621216 467.60507263166 458.632976894339 449.284142527674 439.721225085485 430.108444630418 423.033087285397 419.771525288462 421.613404267208 427.322363648286 435.340023722944 442.783438810351 450.087284358149 456.359601297712 461.031250866293 460.502802865523 456.132295844036 448.887456424798 439.60823124422 428.050304132885 414.638607466793 402.290196228292 391.775507227098 386.841543135474 385.875775648674 386.598853256477 388.25951416369 390.142567307027 392.015985347189 393.752144484801 395.594388163709 396.876617745087 398.862440221368 398.2411311039 396.496613968616 391.806080233839 385.174634469448 378.728783815477 374.250957814631 372.624782454332 373.07045608798 376.895434965871 381.636504241141 385.490733293339 388.256896716387 389.221287325925 389.194335308451 388.547035922012 389.570305103829 390.648676687402 391.614851943022 391.690161624459
373.593516158994 379.806471051042 387.053046936229 395.650634969485 406.074463052923 417.111271621612 427.626431808958 435.976729050719 441.504512094946 445.257965004245 447.311931252957 449.471087186494 452.207037205477 454.979631459193 458.259888613182 461.183993841952 465.120940397548 468.058554595579 470.092365169575 472.01788952044 475.426939033266 481.100644328939 489.069531103821 498.876165530088 509.521538361939 520.26835848569 531.62467395311 542.215072383627 550.838062791078 557.574489559883 562.960593456442 567.298587132655 569.972306884084 570.007650212726 569.424397628319 567.550966407422 565.57445721905 563.068148760902 559.828411377859 554.490720746041 545.870347141766 529.266129723959 507.185031420422 492.070146034608 484.674974248965 477.100303684319 471.31376207569 466.034964989014 457.500201299091 447.799380028811 438.377062921499 429.383630376637 420.314897464007 414.449619564674 411.003676980129 411.293933590752 415.805434994498 423.324527772797 431.83388690929 440.982865015596 450.456687185478 457.82254593929 460.021600572229 456.711701092973 449.609727358568 439.633864222883 426.763185814722 411.837141380096 397.59531034661 385.805490486093 379.189935751535 376.725985429259 375.699788290724 375.688614876371 376.537287286811 377.124542261036 377.16733788453 378.121962344811 379.477988159353 382.244136252611 383.683088558083 384.598569974234 382.665477427985 378.284885995111 373.737707241623 370.39148703068 369.6342794346 369.659799410993 370.724300385198 373.516030510758 376.38910720456 378.344867995947 379.309846936395 379.449562264209 379.566990322676 379.750798162368 380.808803617904 381.721751553282 381.651146224184
366.612762775447 373.350444176428 379.78963672084 387.282257232261 396.120984636406 406.571673288664 417.336344635921 426.059214813814 432.545455870212 437.129803350031 440.494488229527 443.181872875832 445.383494379721 446.807767703786 448.579712613721 450.865081371288 454.232405037416 457.26298490866 459.988835886594 462.853583234287 466.913834656794 473.472376058644 483.05801324588 494.365538947696 505.895943434208 516.826168246102 526.939256821768 535.039350961956 541.748797691762 547.111285970786 551.490078457271 554.885178262681 557.156182679416 557.702650874955 557.724292809188 557.32630196812 556.763810920339 555.334883737858 553.737868445313 550.858413524795 544.811277005709 531.735330927226 510.85783088554 493.098665870257 482.433401822844 472.999194010779 466.03462287537 458.081683903878 448.088869579857 436.988284952277 427.393938770467 418.538383561939 410.522417736667 405.851060412825 403.025980143708 403.052260528085 407.095654097511 413.629537129792 423.253368840809 434.304539872785 444.933342802141 452.607084591054 457.297833082885 457.123878586612 451.223662893257 440.014611557132 425.61560852938 410.268742615699 394.566036748113 381.312618060098 373.106804059058 368.333112098547 366.32962253349 365.463692739537 364.922838551067 363.295882408586 362.372543526314 362.617533047409 363.861846851052 366.083445398924 368.924290425113 370.813936421358 371.077430182817 370.212530924276 367.894371444834 366.415345407998 366.322780451531 365.349140504663 364.415499971136 364.566772403004 366.55247770952 368.441915770825 369.573048695275 370.650522965574 371.636984523433 371.861021557945 372.79126200347 372.73690538996 371.653036996828
361.177026919939 367.280344639469 372.608324509174 378.329143215787 385.24778371873 394.152157861028 404.433070629032 413.925114096822 421.521065790329 427.736294150154 432.34267327349 435.706842158577 437.036706583666 438.106634235976 439.340586213103 441.573889616987 444.643182214417 447.712481335147 450.884947728302 454.741384664172 459.843810832972 467.761663311296 479.22558100069 491.742758093555 503.499326861276 513.773032531733 522.65140612554 528.396080646999 533.172681237594 537.068398416115 540.447696982744 542.843301957363 544.338147452075 545.281754561947 545.383453271224 545.485162424064 545.507458598745 545.245504511344 545.768597605897 546.079606022463 544.498249104194 536.292742555214 519.36851885701 500.174671263987 486.120860300191 474.201414043168 464.274877863332 452.969921647389 441.048323522402 428.523211235071 417.503530491901 408.403477629921 400.986609652772 396.816474660391 395.234409877779 396.039675055261 399.54368911656 406.14616474598 416.07530693872 427.134331533659 437.792669194333 445.763923787502 451.022135498909 452.667935974546 449.278167445946 439.302008788349 424.395239765918 408.445162324419 392.920889091154 379.129144088082 368.641652309248 362.844801743998 359.769372815065 358.433351828126 355.717239129227 351.185640129711 349.331451815926 349.228363626528 350.31762061248 352.389043770224 354.356637427754 356.478008575309 358.607110761947 360.036507161045 361.082073465984 361.237503566839 361.166873498582 360.17487458465 358.295096063319 356.74070663029 357.720854996926 358.897284987033 360.760735325256 361.952876389149 363.875457257017 364.959369494529 366.024496421232 366.791502407646 365.425140449745
356.992578978227 362.578468132172 365.977431361829 369.103935174388 374.055037280612 381.1632199965 390.668843841309 400.674465386151 409.889904712668 417.328960302842 422.80767129407 426.601160105907 428.789347528759 429.851471701397 431.085487103278 433.207431657765 435.738674389339 438.807977984794 442.154652556504 447.010591599002 453.190100864364 462.521615642732 475.427772268323 489.26625048459 500.948537474673 510.608127187376 517.927400013009 522.242999655576 525.483237937224 527.459790468874 529.389681136386 530.785789461693 531.364169831201 531.876840461319 531.986365336608 532.177255939537 532.85057898465 534.154571356292 536.785241680279 539.859242562484 542.37325996294 538.653300977275 525.837791255242 507.48585389117 491.423165423658 477.45155818801 463.771723664907 450.04472775641 436.577007504433 422.802844453443 410.461781531651 400.515821783406 393.202710217092 389.569001310903 388.092575524826 389.402587593089 392.647073070176 399.172779855422 408.489969808814 419.237365659882 429.68724756712 437.93210315918 442.933390437579 445.423242643563 443.909878389479 436.660926133083 423.103823078761 407.649168096477 392.457132407065 377.965535814438 366.860476695518 359.749248491666 354.820595138033 352.219787560608 348.201797910923 344.006884733435 341.130743394153 339.106796992842 339.029836183624 340.795021351884 341.876208863192 344.012003939215 347.351298647681 351.148366805185 353.169322318471 354.121563933049 354.348578539888 354.281358225137 353.34200093277 351.781428339692 351.890978098446 352.877400631015 353.916404441869 355.100738371408 357.139404081106 359.181289901023 361.086823710775 361.830088047242 360.575925519217
352.931859984484 357.660142915918 359.909692992823 362.052950180597 364.880009459713 369.466317763053 377.441194290127 386.965228370784 396.960789715499 405.953201051673 412.361677009338 416.81500657731 419.531278577059 420.727349440606 422.5158178797 424.470338467557 426.200485894095 429.613272119563 434.676097377863 440.407220009469 446.985506437276 456.844820664542 470.723001805216 485.226726988519 496.908903096598 506.416242272737 512.827877353105 516.143980905518 518.301213113268 518.732044093455 518.748813221516 518.712640073798 518.299403579409 517.98871471756 518.098242781312 518.380636107599 519.744729385688 522.574667087611 526.846983382639 532.304661747547 537.030539197407 536.399869004313 526.8907753743 511.023612188152 494.795552064201 480.10122825361 464.125062785996 448.635889667309 434.575955192492 420.206545091011 406.294670468274 395.160045314303 387.629966803013 384.289545319011 382.709123208217 383.361343692219 386.017940032812 392.196326693601 400.80622020866 410.33094648646 419.844544739901 427.65385818165 433.481888812056 436.076710096517 435.552489089052 430.871282966848 420.429451062461 407.013024145463 391.609613988343 377.407253429977 366.515915736508 357.638923434935 350.90542039879 346.640588358405 343.170969469808 341.178664765439 338.010278663272 334.031589583444 331.496267539083 331.997179428215 332.078973125228 333.490561921063 337.48130940052 341.492228309408 344.280787136264 345.676057567957 347.516138386943 347.834568542707 348.664122491222 348.609041530794 347.839235334034 348.009751917468 349.002206970503 350.186603918222 352.217400757879 354.398596965598 357.121387120291 357.854175477629 356.883175491586
348.814358179508 352.66991872535 354.567515770209 355.880441237279 357.399826421069 360.234626011929 365.702959030685 373.85159344635 383.949792409906 393.609017148257 401.001206929287 406.253731813731 409.085761667991 410.884697009836 412.841799000287 414.337409131367 416.420953176575 420.674231689105 427.350989364858 434.124150361862 441.809110530225 452.139470437971 465.773975387883 479.895625108655 491.923782416581 500.955952515758 507.366342084796 510.56907171559 511.711106750179 511.052810458162 509.593199984264 508.149232993559 506.629931612307 504.90742691492 504.210120472309 504.58664493362 506.524458451591 510.528422543409 516.884444658593 524.509610973826 529.932355318302 531.069855185208 524.616307013961 511.542951107184 496.81263773829 481.95894831055 465.840762822465 449.539520647732 434.66274780821 419.293877659072 404.292197850949 391.717434141811 383.666195201967 380.246976607624 378.126558045274 377.369325932237 379.571438532645 384.364771549163 391.015046300167 398.745967750814 407.48966407901 415.649685624573 422.107992720574 424.951110669711 424.823319820858 421.750353354824 415.010562943742 405.094162369973 391.879593296396 378.353120127176 366.512426498202 356.812469291358 348.989837615404 343.435703032761 340.432068845521 338.843854180228 335.568295300657 330.84063702049 326.944302604285 325.019521743849 324.130358348983 324.681289297512 328.047319710765 332.721807173001 335.966608402005 339.179967255068 342.160470693642 343.792436872541 343.968955444647 344.786188727335 344.817663329478 344.855246317448 345.072000799687 346.256460544853 348.279388055982 350.301317756723 352.328274699778 353.878262740982 353.066802054283
344.532750350762 346.990789177398 348.982501653325 350.460062831506 350.987876138129 352.729045213183 356.54478905064 362.825821025113 371.678112552431 380.96876564241 389.2060921359 394.837455586102 398.253935175143 400.33916420446 402.352720506208 404.257242938896 407.219996352066 411.991168291637 419.776480599517 428.215688710483 437.703044915797 448.775822487674 461.877805114298 475.034377576889 486.39888454738 495.164076177145 502.068474257076 505.634198181032 506.613318605103 505.03824910576 502.981296876472 500.522244029068 497.889223678901 494.651073294 492.706998977684 493.066172395764 495.052811252822 499.326997750309 506.70242845243 514.951422854163 520.910891879311 523.110122774436 518.452747834388 508.36977241611 496.426806296724 483.107334219791 467.494115938596 451.865237735731 436.08526376211 419.709095587592 403.715911973655 390.160961524479 380.953964748601 375.751112565393 372.771638835405 371.56255132109 372.550903160568 375.127502365202 379.802469994055 385.739579746077 393.747408536188 402.278094731169 408.900782816779 412.727483318894 413.762789339181 412.794404623252 408.796661908122 401.808418808878 391.960993747302 379.600371021673 367.585623487723 357.564409218544 348.879204473802 342.777828836805 338.08905061792 334.824845292183 331.587788963623 327.417664462163 322.035427052445 319.053306238429 317.535069043856 318.086184612761 321.289495882002 325.508113631259 330.621261125261 335.692248395299 339.9643663232 340.805973669916 340.777623358262 340.780503868904 340.849679617384 341.050966834378 342.085807142815 343.293977147709 345.313172835896 347.174064297479 348.041844411291 348.1022076208 348.126999313853
339.742841496573 341.630348713983 343.100557280944 344.880049561348 345.689668652934 346.997402243919 349.761374771138 354.60546557918 361.522099692225 369.400504534332 377.483481414114 383.680949727802 387.488276238042 390.204858525643 392.778670100054 395.051336769883 398.570555559857 404.283905575929 412.305859916728 422.617930426665 433.439679992288 445.216741666008 457.682678900755 469.874617854223 480.517709397375 489.361891705157 496.71438350482 500.883755909002 502.641196682072 500.97783041828 498.404347672516 495.4366170212 492.271395380733 488.501167483646 485.939326556691 485.248152156247 485.872738828214 489.186666635044 495.663858973683 503.207844471828 509.797132916424 513.021162954111 509.94672582205 502.425908532501 493.068647490362 482.175075182111 468.179116054618 453.549674742066 438.451052475961 421.306103953091 403.929152574669 388.633470245423 377.288998434786 370.636779333301 367.247986396054 366.419590948777 366.16371293443 366.381884403654 368.892596567692 373.212296639583 379.957009659878 387.405031086431 393.897231458838 398.309778091467 400.488008811519 401.278137185283 399.095231923293 394.252730161821 387.232225119054 377.893520932169 368.288324734006 357.796810869628 348.18427493644 340.724234547077 335.644778446383 330.945206086899 327.006930807019 323.584299849184 318.7399067877 314.56488330365 313.694949499043 314.324518085569 317.445706100709 321.828870311679 327.850422889476 333.50001442447 336.924300434304 337.554990506568 336.594669012464 335.991197080201 336.857386899819 337.090915096999 338.296999177105 340.14829197744 341.361059693117 343.040851534092 343.088277586341 343.127651248678 343.167028928027
334.6417311369 335.902624074292 337.164179862347 339.146594076289 340.886575506275 342.530626380063 344.45623111016 348.777464501887 354.223825381356 360.311921428963 367.512561360817 373.441036610885 377.440050391629 381.008209480133 384.127091603383 387.365914074243 391.051356819995 397.439225494016 405.669565847276 416.378840455236 428.088521009754 440.013935581092 451.503885351058 462.91510644111 473.670238784802 482.941441973317 490.480113152834 495.633175962039 498.463529358412 497.983737354979 495.39728388345 492.413907846632 489.225155754816 485.351026135532 482.113118669199 479.797572903692 478.463282690502 479.902555184323 484.697049680101 491.609506537819 497.631062687304 501.681115263276 500.566119360516 494.949610106901 487.125230405934 477.813728441036 466.574908258497 453.547305726579 439.246647495231 421.860541325413 403.007164068075 385.690367676192 373.385932406755 365.895398925489 362.219762484713 360.964432372228 359.724785569086 358.753313398182 359.352724373595 362.543887937598 367.452351553312 372.785306004904 377.868862353077 381.611424527506 384.505046830321 385.922789571741 384.884798832232 381.910897679492 377.230073575179 370.889738021439 364.082280471373 355.286601481654 346.005183235388 338.568664466355 333.058665795464 328.738798463652 323.816837180721 319.743070732154 315.819941582116 312.40432749356 310.988949297109 312.193403996826 314.58591278779 318.962628328809 324.909050998239 330.30806171752 332.734777855108 332.578629942321 331.596414152065 331.039146077181 332.078152103523 333.117161909742 334.157256117638 335.379803499582 337.226131011554 338.088934205069 338.128304996359 338.345142236261 339.165646904233
329.791194808445 331.380011211048 332.63383085733 334.664390924568 336.694953735442 338.805261747114 341.39412120317 344.967725168131 349.335267571401 354.016718191468 359.696959595314 364.957192525108 369.504091100507 373.473459321213 377.086685762194 380.708642542143 385.212278215017 391.229425741151 399.83524498254 410.634214645066 422.230937645391 433.93682808497 444.435159857819 454.949120564847 465.492197976376 475.649790394405 483.793055015559 489.921990849695 493.929306081381 495.200533725066 493.389618503186 490.406240492637 487.209602732372 483.226555712764 479.263485374666 475.393333551109 471.885685659389 470.678050786668 473.994575427979 479.674276621089 484.603349210682 488.320595983352 488.858398160316 485.101978002607 478.603996894657 470.70403757997 462.134052269325 451.589088620493 437.777001191779 420.452613144609 401.868506918348 384.355370996549 371.01079646356 362.297016538329 357.576727757227 355.145985244437 353.185860078953 351.579862940587 351.765182945924 353.912308050544 357.317489657578 360.098143819034 362.664234309936 365.130968135657 367.498139809311 368.38636914721 368.037760907122 366.525972884018 364.547081409493 361.302455003042 357.160721959522 350.517362788928 343.227614853363 337.001562618808 331.947669939287 326.49050374027 320.487362358912 315.673525067078 312.280141722366 310.343967021934 309.105102810732 310.309619808942 312.710115890471 316.899468573885 321.834522416038 326.169297194731 327.765997337991 327.394280920751 325.853469479835 326.087095399628 327.126103380874 328.165115142009 329.39697241003 331.235042295061 332.282173104314 333.128960557213 333.353770105816 334.357723394712 335.379436223109
326.330996693475 328.285072997671 330.07154612632 332.244904741932 334.780902153751 337.017912499493 340.024757235942 343.260810212767 347.267335485076 351.209672278179 355.099025770504 359.498022936622 363.825456048554 367.863212330683 371.810498241913 375.624418073262 380.335392781268 386.496219174467 395.073260164238 405.667311476144 416.803082630149 427.966947705487 437.768772377095 446.992146093651 457.158115632268 467.602215022911 477.121630546003 484.226440516531 489.098042710846 490.980514282993 490.058612975836 487.565319679799 484.835243528103 481.210998998182 476.909329291042 471.298749939506 465.449937149947 462.303066315388 463.971839186715 467.451752741417 471.480706091511 474.363311750876 475.676261811689 473.661803630883 469.634969279613 464.483969624779 457.939198581831 449.233410320865 435.803576274225 419.190185429347 401.660479712467 385.088088187739 370.878313581242 360.524042739331 354.217481698492 350.39076877954 348.210035192488 346.519245021689 346.184610628567 347.322154385279 348.873748364504 350.245111997909 350.648524003069 350.459941537294 351.017642432673 351.599132615102 351.086745474803 351.073032718196 350.679324060969 350.399183983441 348.313770587217 344.628602074467 340.199736982271 336.294679602833 331.0508105939 323.973950427395 316.437304864042 311.37185900987 309.429415554414 308.018932165718 308.289478323552 309.486194835152 311.858787759542 315.743946252041 319.484650651214 322.01480663529 322.611582142215 321.657175811538 320.914790321346 321.145762072209 322.174054983661 323.213068699776 324.453280539448 326.488336519264 328.304208941388 329.135189597931 329.558028380123 331.348135502109 332.371423230176
324.775951268627 326.949169599999 329.641297813685 332.394280961938 335.147499116883 337.376770166179 340.368012503867 343.442693896764 346.947012871957 350.70930240067 353.796976672966 357.180923028752 360.580478483643 364.137020957016 368.159166777622 372.181314066944 376.536540252742 382.591145348262 390.955637412111 400.793861301786 411.70210235347 421.968334863891 431.141881666024 439.536577288861 449.313479311115 459.99218588881 470.46584044565 478.433091425941 483.668238122231 485.619197278117 485.521651095053 484.725879955207 482.860216818223 479.538566014682 474.655818277458 467.985790646032 460.922605868719 456.477171252551 455.743343662414 456.918647671468 459.300113113416 461.951674323835 463.824735229506 463.497803902728 462.333674579909 459.551271279114 454.399522622615 446.379794024327 434.061369208947 418.952728934188 402.206472369258 385.589990844002 371.03405892812 359.584275429208 350.925329566405 345.972834691011 343.29275161888 341.915893777925 341.920594092406 342.499962671993 342.264239348742 341.701814439856 340.337767007436 338.208935707408 336.488725107588 336.325377164542 336.619730960564 337.038323577566 337.783312703636 337.703820607129 336.95930799454 335.766721314018 333.177317844729 330.882076436441 326.774908400984 320.662487249381 313.62750663065 309.393397141313 307.947378404749 308.297597334594 309.305648512509 310.547851292735 312.472648291332 314.614166886866 317.112811853686 317.897099742108 317.724643867192 316.932036174884 316.949604250021 316.982570543033 317.222006911896 318.468328505346 320.490986136478 322.521797987001 324.344163613935 325.366620821007 326.564572421667 328.575581318963 330.531489200622
325.360661045109 328.114240918959 331.097691956583 334.081140681318 336.981835668403 339.703689389035 342.679328419754 345.498192440253 348.088308551854 351.357342095221 354.198132785023 356.730987970613 359.583776114918 362.378884176578 366.243334953637 369.67435187263 373.500975882338 379.112191502466 386.822396834347 395.788687363707 406.046968801875 415.57675392578 424.783714779888 433.067860024759 442.469372575525 453.134777337274 463.825685415852 472.643716310149 478.334666133138 480.881889850106 481.965878078986 482.965067258503 481.844554540925 478.483530600699 473.346134739968 466.249020637214 459.075492294798 453.29212353538 449.89369060745 448.322265650791 448.94035163622 450.959444328663 453.740693038389 455.448301992448 456.4751612845 455.434446417631 451.033148497444 443.214591011133 431.945929801953 417.986413447908 401.768451057301 384.944318734662 369.526454275171 357.348435459736 347.302352622028 341.25364256213 338.68535043371 337.527007563968 336.739926412232 336.319777078576 334.864663453209 332.587952943162 330.432150464438 327.503780558617 324.801850156624 323.509394264576 324.443572211043 325.257914498379 325.212332102043 325.333482894523 325.498973615914 325.054448072985 323.241484845967 321.348254333013 319.146357703736 315.288898256386 310.755924090426 307.614674958016 307.359592803147 309.179045507224 310.510420055453 312.281122554607 313.261351854383 314.2102698385 314.955155935616 315.148941470931 315.48231389836 313.738882361746 313.197230252197 313.790211717247 313.259514459503 314.508059002193 316.750246437093 319.535624746683 321.549494628225 323.315661012855 324.75004193231 327.49629302583 329.503491061141
327.313508892172 330.800729003125 333.94709311979 337.415309318901 340.383154956945 343.186853974876 345.678964065537 348.401801105988 350.630236272183 353.450418339982 355.720997340289 357.654017107688 359.502424238883 361.856745067611 365.174307588069 368.181161168586 371.547475254924 376.362786229128 382.673537731027 390.5299114673 399.65603865831 409.476817809139 419.537280066312 428.200883116996 437.476639600055 447.630337060909 458.049119749249 467.463016090757 473.981432194797 477.224091355629 479.586173957512 481.219895892958 480.935798032875 478.126948073344 473.711991583831 466.361842750809 458.196744082025 451.096462917304 445.185608570362 440.991391059326 440.158872917854 441.429309873163 444.498821335724 447.411682170313 449.663959916988 450.349272450832 446.761346255528 439.400297583859 429.265146872107 416.63709109872 400.642159467235 383.58686434419 367.03704731436 353.436165171537 343.014637065317 337.005377659654 334.282558222421 332.50208805148 331.310566071657 329.951879104697 327.587350999428 324.272521339796 322.085266416616 319.133349776862 316.372211310022 314.753495264218 315.042134148897 315.630068312514 314.918387286823 315.137796145918 315.518372823195 314.589401869248 313.485789011057 311.961962418508 311.04210659384 309.756700263537 307.193740305123 305.767863052793 306.307494164821 308.567521510662 311.411617318681 313.228688218238 313.989839990321 313.95502062222 313.708244138243 312.705215090185 311.717917332242 310.522016263921 309.237175184414 310.039922910836 310.281013941993 311.529621336564 313.777556727224 316.790713237909 319.548514553644 321.550638879443 323.736616379315 326.520173366301 328.52737325024
330.087572049855 333.976505534751 337.527456603272 340.75166343286 343.727312193728 346.441660452765 348.678600364653 351.393574522908 353.469429194211 355.737006161933 357.720759534252 359.445112668072 360.536685023956 362.20416142293 364.628169366478 367.212761593135 370.334649965064 374.05486923681 378.908837837435 385.402968844015 393.952554024574 404.244649465598 414.898143561449 424.431296196426 434.078670321555 444.098921504643 453.998065453929 463.281973564726 470.869508659295 475.308759053981 478.062288740993 479.70601389793 479.745522826592 477.715801968177 473.51369665642 466.329309377045 457.391622065415 448.724863174076 440.622015308488 434.442230405966 432.345752607998 432.793704272267 435.681855488144 439.09191446349 442.319736255514 444.050051726435 441.675694794323 435.367545962435 426.442336365663 414.774296961235 399.444834197568 382.002825882503 364.695986054574 349.946094183972 338.255684406787 332.270191885241 329.488488576857 327.289662513958 325.106525237205 322.99204549033 320.804059068237 318.103218824083 315.962936051436 313.157608065214 310.248798560156 308.149631942714 308.391290251778 308.869761397099 308.232114775611 307.927420338004 306.974879241336 306.022343203161 305.28184145877 305.01004659932 304.304327062683 304.164403366381 303.383273193447 303.010535634756 304.255254949511 306.708797400162 310.514340772405 313.114044485704 313.690740972031 312.700051372542 311.466502004264 309.487738050344 307.510018611858 305.778944092453 305.045359596827 305.32249982173 306.339411535346 307.829080961166 310.825371119294 314.068925369364 317.580394970446 319.812122494665 322.768432062445 325.756433468188 328.672058440808
333.095057708794 337.070403605899 340.7756415145 343.751295140481 346.726945649628 349.433432411 351.510504539275 353.769252316746 355.753011010607 357.73676762636 359.561931720806 360.852137311529 361.844012502047 363.102519579575 365.094075668792 367.204363449319 369.797043453781 372.918685659788 376.513978643388 381.412381722724 389.449760754662 399.371230103283 410.274637318853 420.670045313997 430.825295434128 441.076721120823 450.49178807221 459.520188540613 467.881394658886 473.451998508879 476.213292809021 477.714340416947 477.367615240783 475.199937094634 470.415055354263 463.883564890247 455.339882266996 445.807358219403 436.809608924382 429.679884408037 425.76670745287 424.97316425564 427.289843338941 431.351213252136 435.066960482596 437.086363425639 436.01245778376 430.996877140316 423.339762723534 412.566221713505 397.646577386431 379.876607568526 362.339245193239 346.678550615455 334.48073818152 328.519013033842 325.543524699941 322.51127130906 319.266110187112 316.136040208169 313.63499597938 310.998501993461 309.245539384789 307.22639734813 304.692551740556 303.311207589814 303.228882771417 303.268145061946 303.093034751185 302.228829138477 301.26057886572 300.235348523391 299.08338631833 298.082662020842 297.451712321915 297.765987672668 298.867885973113 299.906856533918 300.960548492539 302.772496930433 306.802618063867 310.352555818991 311.670332487406 310.455419836601 308.487412383115 306.260610091235 303.526174192561 301.800852304334 300.837197256033 300.61023396754 302.845777800806 305.80824594981 308.822984638656 312.078248970345 315.83662445497 318.79338197025 322.020196236768 325.717538639163 328.716527956451
335.917914189369 339.422967242603 343.128147105775 346.111603732247 348.919912946291 351.350552240571 353.785249948501 355.769011886052 357.752771745341 359.73652952646 361.444835117379 362.428904248279 363.412971536313 364.517470443206 366.101830301909 368.093386508765 370.211368488336 372.819709863556 375.961279275892 380.142158980495 386.806046785968 395.85845774751 406.515291518678 417.263911669215 427.426376933685 437.56626343177 446.594671006987 455.50105485914 463.548217511175 469.308512206128 472.280982882533 473.476625478333 472.87586240521 469.82494328456 464.826207871964 459.285384596294 452.171647702476 443.31039931442 433.941261035367 425.780425345094 420.008589347135 417.869595124632 419.719811432451 423.773353009441 427.826899267187 431.069899727383 431.075735100774 427.346685091501 420.055472692846 409.832742063413 395.191884452584 377.750385034455 360.033915371419 343.840141523793 331.626972566545 325.519289852028 322.543799773494 319.307946458384 315.018396669869 310.051970938152 306.061898872203 303.676134221622 302.853132019356 301.678175119183 300.094214213268 299.125946788049 298.377460316512 298.308139991285 298.380919471344 298.252911600829 297.225855722004 295.590963460475 292.894535929037 291.429289769959 291.458822936777 292.1120781953 293.848150510533 294.89498374783 296.208444053155 298.792120400995 302.839263513767 306.636830417539 308.655773280056 307.713520675297 306.487563218977 304.25283149931 301.272321321744 298.560342252259 297.100196695669 297.844523626826 300.833313596732 303.848054278236 307.097108831848 311.059917893123 314.818327382738 318.052708993138 321.764558056015 324.838934874011 327.84580421955
338.168838426057 341.253325656898 344.496621747737 347.487881828538 350.193939286654 352.470397461142 355.177078703457 357.168646500075 359.328400221106 361.736291862248 363.436730852538 364.581800446541 365.807344336633 366.388933782782 367.501201408391 368.949661870261 370.71196513638 373.365364418031 376.781785500689 381.41519840175 387.098779496676 395.151867736777 404.93978624 415.316943496817 425.191252325934 434.460142180169 442.897873738753 450.880808838766 457.928404187655 462.874173147634 465.376977845397 465.874283714032 465.235359009553 462.266724142615 458.173535519446 453.783841193341 447.764324672011 440.064911475681 430.824702196476 421.311508685636 414.194304120501 411.510602843266 413.133794016361 417.179506801448 421.309908475391 425.384184513462 427.356081935197 424.665063784117 418.279816120113 408.207087545338 393.937767112111 376.136004678107 358.411740955377 342.225978238184 329.783442105971 322.908287888623 319.702577005061 316.356346235987 311.990281022098 306.007930157393 300.777927944843 298.420183705483 298.009610817811 296.881702705691 295.810437322564 294.896679593138 294.043538883586 293.34813500875 293.587223377244 293.902688332601 292.381668882072 289.516258167724 286.85959567017 285.237537090131 285.053320088991 286.807442047497 287.904078092791 288.950913512355 290.52051523313 293.837165854149 298.155180214329 302.409285531635 304.21012504666 304.982730929679 304.487713615434 302.245052230652 299.261785875965 296.536917275193 295.069447728538 296.10512866427 299.822653926552 302.587459405194 305.159336379307 309.411147171655 314.085213528805 318.022902348633 321.766172362889 324.537042367224 326.425990677395
338.882935396485 342.069854474522 345.512222098403 348.320606706825 350.766524913018 353.308084795125 355.584878142793 357.757231829029 360.289256835424 362.751056640157 365.025509699313 366.703568622586 368.266915298018 368.92612442021 369.902378186093 370.725228906183 371.760642778004 374.380997806282 377.803440495294 382.585482223305 388.365546313785 395.450574048844 404.39906714589 414.269604529667 423.662263428693 432.2592572148 439.544909925219 446.008072594081 451.492567569083 454.548624601799 455.463544673628 455.549610987442 455.180002556163 453.369399422322 450.435719480061 446.435650742516 441.744176635037 435.054088455738 426.176935519349 416.848749681547 409.442713588836 406.36852744267 407.531791037981 411.656868722708 416.275633147194 421.152760172017 423.732414800045 422.323771501071 417.021034140226 407.185873611647 393.408845078538 376.558593106333 358.997666914992 342.747630904037 329.892244888105 321.989349859331 317.627563518811 313.658775315241 309.626033146385 303.842323166148 298.544531393155 295.292988816562 293.715619143401 291.528859988965 289.890485870941 289.309602696154 289.111203389576 288.44370802007 288.040289377265 286.815482609592 284.86327158176 282.688866009525 280.373794274704 279.352858661329 278.933724037402 280.242985268927 282.011665536246 283.062451463402 284.654488573095 288.189399926754 292.938534592711 296.999179936457 300.242301067668 301.280288102849 301.763428636218 300.237272285377 297.254003959211 294.537063747289 293.085455379164 294.163842537261 297.663111722651 299.976435235004 303.207083499857 307.728459070481 313.626441091383 318.718943760692 321.319004909388 322.520056868798 323.62707604342
339.545289636159 342.647951928456 345.904650765414 348.787851736392 351.510350600176 354.20099609869 356.014800013486 357.899975801076 360.599359126652 362.89810087273 365.765798164135 368.150408119999 370.168900581145 372.070213696657 373.415784913044 373.931544157035 373.983252270904 375.752463395232 378.68441662497 383.122518748156 388.775476496056 395.364778533571 403.677034643921 412.600928359658 421.031837129199 428.712165759469 435.021770571079 440.09631104547 443.262917825507 444.344568588264 444.147026834451 444.240920090659 444.156273844716 443.337242308305 441.211733380281 437.838972685507 434.245796224014 428.228468059595 420.094824119321 411.677173122406 404.595400314942 401.090191560658 402.38256624951 407.104499577045 412.760282155397 417.71601459898 420.171126928935 419.921478521237 415.328381967779 406.779796132609 394.519061058353 379.097311398777 362.071432912331 345.616312973435 331.891692327353 322.589962773321 316.463785853709 311.139040151012 306.02611902487 301.051281890435 296.359559680561 292.621526066747 289.255619623025 285.852593625157 284.448269424783 284.516292242596 284.598949540424 283.980835860929 282.263531619252 280.97395739534 279.102469615248 277.471615143979 276.216317669982 274.519417108211 274.100404960803 275.387536145225 277.103251129761 278.401988561689 280.414780478096 282.730335364504 286.321803741657 291.082039872056 294.571979225547 296.33252074162 297.090976762398 296.551199632223 294.546192319316 292.799711191847 292.050731532538 292.380296057181 294.067518363072 297.294469156702 301.505016091661 306.723685734551 312.729564577319 317.920644291907 320.144571538958 320.038157843671 319.552949649331
340.560886957737 343.552156665991 346.543424864625 349.534691553612 352.525956732971 355.208740011555 356.892143959659 358.499743212183 361.358253971769 364.042816103734 367.026264436923 369.70310013438 371.993154161807 374.832574541442 377.029610366612 377.749430486667 377.17426656524 377.951899365348 380.198185654244 384.48540271586 389.771988453249 396.078087030971 403.007834710182 409.659329064002 416.323448429653 422.632912764279 427.700396267573 430.984341151594 432.520202079259 432.565489015412 432.123736360886 432.064913424576 432.544947308325 432.709662899328 431.560010860184 428.887232322277 425.764312192398 420.981603164142 413.278651926242 405.433085877075 398.698525520054 395.448458579795 397.061470242927 402.984250262087 409.620450261705 414.050650628876 416.482134319343 416.619691057882 413.690280801326 407.494756058517 397.430637764012 382.83540898812 366.194998987381 349.834863161681 335.404421446641 324.084522098822 315.84113014335 308.770337879977 302.83354393071 297.8665506023 293.190581970954 289.178655732719 285.152621639698 281.908727710782 280.64784207581 281.00990270113 281.368239229954 280.103378693585 278.15600903678 276.530572324596 275.546610550559 274.584195425324 273.358672539635 271.65397369458 271.220365701301 272.19909808405 273.204301029288 274.202091873022 275.504817909251 277.80618741719 281.405645650791 285.871829534658 288.63681949475 290.677862199155 292.136291499432 291.882848977644 290.606946034673 289.189106227802 288.910904389646 288.810727286976 291.067021598036 294.370510641561 298.928559902897 304.877404748675 310.640954184645 315.180164196303 317.3651844733 317.109945771516 316.172208927128
341.774470651811 345.378078085226 348.58078469933 351.149697636551 354.133161828146 356.800278657041 358.650046434372 360.472334968194 363.243746079624 366.777134624558 370.123422888266 372.945634437703 375.42198336656 377.863278477379 380.167654584124 381.362303136557 380.991589152304 381.27294074425 383.178249003819 387.309694346974 391.979040026251 397.041224951304 401.963908633827 406.39183369021 410.85071089664 415.72004075123 419.00171730666 420.244959884815 420.841884320382 420.1225353243 419.761689670805 419.623597850509 420.576485254682 421.845024697408 421.814209592419 419.693403048858 417.006903674328 413.057515550582 406.371160299879 398.95247532679 393.012433509355 390.580638417617 392.560590124141 398.914623568487 405.847478381185 410.285397809271 412.804443910014 413.194660158206 411.026851872585 406.757076525262 398.42506291952 385.675352606807 370.954497636411 355.15959096756 339.408666127403 325.828729520522 315.187102187035 306.247059202175 299.062782918522 293.858997613381 289.190935050614 284.968461422499 280.733293031462 278.519808977269 278.261342647273 278.851998028626 278.522101392312 277.395853677847 275.911532615028 274.951988585033 273.92874525592 273.18108494852 272.528121726292 270.807765268677 270.073985429467 270.308684866659 270.97234382356 271.267799859793 272.272708149897 273.87298202039 277.477280853198 281.634233472731 283.681161487352 285.436386907029 286.492408671081 286.924870885124 285.674097849863 284.294342817125 284.584804430668 285.802749831517 288.380115495455 292.598608884908 297.308773062332 301.789571191306 306.894950039456 311.097406346382 312.898560004444 313.263636231708 312.295483247861
343.532659807408 347.318272266812 350.63915027511 353.940844270006 357.308011663543 359.951657131742 361.919818090573 363.887975363315 366.502690604372 370.470220152989 374.288281624699 377.441371957237 379.728706434169 381.531683823185 382.834463503051 383.657544017915 383.979819642127 384.593677634103 387.177799009652 391.145286982899 394.819654148586 397.890746930583 401.134382878471 404.381959592889 407.282376719609 410.295033138378 411.398797762419 410.916247165047 409.867007161711 408.166405121966 406.933874166891 406.90113589527 407.889253890647 410.10297627727 411.510154981523 410.406025324535 408.388641575693 405.028483217144 399.995729282288 393.255172010403 387.36021625317 385.252666672233 387.468040017563 392.782726763503 398.76716719078 403.124104967633 406.071215506922 407.215929202752 405.362566721078 400.965281243227 394.627403076916 385.404160042906 373.380830172335 358.745478878975 341.750932392889 326.12783452575 314.080425353246 303.978931857797 296.252992477073 290.004631183999 285.381222234911 281.541096965972 278.337362330294 277.427660006398 278.148750815175 277.906945734313 277.196463548618 277.512859205773 278.272676367314 278.040127351197 277.097260545605 276.032562387593 274.649569049752 272.887384646172 271.782438305049 270.708920398011 269.974416008166 269.979967642542 270.596884210821 272.606460160998 274.93171816136 277.678689412744 279.418059067179 280.476345240657 281.22925872189 281.291522911198 280.979027321671 280.545607288428 281.797418426722 284.30565852776 287.91806745073 291.314478804293 295.398081833483 299.184008362324 302.44732341129 305.369997696809 306.867081979664 307.48006252049 308.568794583862
345.548136421737 349.397660204158 353.105704335252 357.469270226712 362.066623866157 365.071096100549 366.652056229049 367.871767102678 370.502218172909 374.469750052896 378.262497116049 381.395419470503 383.543201843386 384.845678596246 385.328807393023 384.986224758028 385.158391903553 386.459175086479 389.778469859584 393.619149290392 396.654840901283 398.654216515696 400.838222900405 403.365235363956 405.70492761163 406.908643128129 405.796601918373 403.716468970871 400.668249803446 397.099990728127 394.457960019938 393.830325978096 395.008912513209 397.4333764493 400.108534359344 401.333496428076 400.533843428631 397.810153959816 394.000316032671 387.937892145653 381.534903100841 378.13279611102 379.507768615026 383.179666376043 387.51584972514 391.453371046167 394.931206245086 396.091417445408 394.327296450063 390.73840856185 386.777228211226 380.609803363387 371.055087254416 357.771677196742 341.063285585117 324.66910912052 310.848712774777 300.565843102098 292.648538085287 287.034823828154 282.824298787949 280.008658511242 278.159850373805 278.577070506877 279.631277802456 280.011835654576 279.36093157457 279.954498756482 281.633526856118 282.645183446935 283.000853943825 281.699182032364 279.666522110118 277.257884604402 274.161846646137 271.103285540373 268.698472182683 268.308075987806 269.314252245934 270.641064928667 272.662245956137 274.698886232086 276.414214226641 277.143534075311 277.205068958684 277.236543976878 277.533282367963 278.738803523479 280.974414524796 283.943642759687 287.013480790094 290.05277419671 293.176262873565 296.011487694377 297.902594984403 299.172378876276 300.279073860757 301.527122592793 303.476073034904
346.964759278301 350.955731125754 355.344318058667 360.769676184415 366.45020372322 370.288765464534 371.020646693534 371.311331682222 374.147181359428 378.46928082417 381.745933190442 384.040258194018 386.518790068252 387.661741000539 387.641960821396 386.464367781107 385.810475973822 387.318088584679 390.18972613884 393.40514951492 395.785250486707 397.945933448642 400.385231625229 402.862918396065 404.785225434817 404.660057882696 402.472010962115 398.633229148581 393.562557463394 388.064995472449 383.813373709831 382.077008465981 382.826190264116 385.12994843589 387.994902935445 390.757301921639 391.739206789534 390.015611292619 386.734710307001 381.536248210657 375.308831653891 370.635310779141 369.356888917474 370.311048150572 372.822476817159 375.949135291303 379.110296445623 380.278168283962 378.847414800533 376.606846218262 375.091253182391 371.852108564173 364.050106809773 352.219306619335 337.066127059717 320.909697660475 306.741657414338 296.745556230244 289.718863004953 284.659511388099 281.525761138253 279.959813578511 279.662948687582 280.994801842702 282.713136246806 283.36035082517 283.355310890799 283.988881137737 285.906267167427 287.554434692569 288.203244453619 287.852697161178 286.184000590033 282.516595733808 277.486774719088 272.774772879282 269.378457348671 268.001335256008 268.328920574749 269.342770268634 270.687998542721 272.398474136171 273.14434127791 273.205608300644 273.237081019366 273.562003875758 274.82993611418 276.793585115219 279.122259153331 282.137021146284 284.872179415374 287.004067608883 289.425801756256 291.873016594647 293.001598644941 294.040654859847 295.079714856164 296.429408582651 298.725848125923
347.959852046505 350.813058268561 355.517087849094 362.313914056854 370.157303761061 374.915139292547 374.828695389668 374.466994158513 376.607984913389 380.906932508895 383.859086213149 385.193463395594 387.365963362808 389.169006139495 389.136539799044 387.947628274252 387.11583073152 388.146344804022 390.326888479182 392.686972105264 394.537178338011 396.601728901168 399.608615044815 402.273257994887 403.59659159157 403.262792078104 401.11465158286 396.06457401248 389.372073880247 382.036217628862 375.61496791554 372.441036584916 372.720952150028 374.122485843668 376.004302538613 378.444235504525 379.666949839173 379.304699621982 377.322076447211 373.550186814216 368.474897091969 362.701900828066 358.175002269207 356.263461691716 356.473380180529 358.049554219944 359.969381029812 361.050268407216 360.093614505891 358.985420329966 358.670211162085 356.557620242067 350.62635869012 340.911577149692 328.323645320352 314.903866013671 302.151417625292 292.672232260285 287.67429412644 284.639363992645 283.033471284601 282.377972360785 282.787368088601 284.477796179894 286.778997957236 287.410445094459 287.67542342056 288.593844914767 289.870906697461 291.479685290134 292.128433849907 291.777824539952 290.101145263457 286.432033374518 281.418873170159 276.714593230504 273.007761194453 270.642239803663 269.648117669892 269.324447786837 270.023210127441 269.791823310525 269.206149097133 269.541571204743 270.201819862889 270.547924592278 271.893379840871 274.208934552674 277.162065545679 279.889886394678 281.985231834785 284.008199675075 286.072876705641 287.872383426157 288.9035613684 289.664637610839 290.1276830757 291.749848077709 294.926534008465
349.522973236953 351.372503036796 355.706817118943 362.9229818404 372.436974526876 379.018485790829 379.13445252624 377.737901672433 377.906016235513 380.905141450922 383.670526588026 384.3597877554 385.90920082468 388.079055249388 388.867051127563 388.181627270169 387.703375053927 388.862405897209 391.30122956038 393.419080623243 394.777749547204 396.324190801742 399.051301821583 401.559063719853 402.742903766597 402.515031042256 399.874266223933 394.185884104484 386.847318619663 378.733550413237 371.09411578587 366.393560346584 365.104670104411 364.612227884296 364.936101371271 366.145816547173 366.579029724634 366.374290590284 365.593079491096 363.101225027208 358.688919220322 352.440315813972 346.137306336341 341.850963162903 339.834971419002 339.56787129884 340.549088155462 341.265653262315 340.922921695907 340.064367102942 339.140295002812 337.202108390789 332.622831015646 325.524139936535 316.388525399935 306.145376394471 296.899710908844 290.781659528213 288.091786149447 287.145995706986 286.153283600119 285.865654600987 287.163920810361 289.431235302269 291.664975524993 292.296361255471 292.26494458382 292.550134260855 293.470522526149 294.420935292315 295.057951421407 294.691998515668 293.021585075063 289.688981274798 285.675294130181 281.642898120326 277.938221425905 274.913337893347 271.936361147423 269.976004712059 269.682496125844 268.719946934121 267.747869765106 267.465892692654 268.150552676109 268.496719289922 269.542179270124 270.98882636849 273.415390538564 276.408175413924 278.736594428078 280.464111167376 283.071056717816 284.766210742937 285.512456959221 285.647537620075 286.277242181608 288.243948080043 291.046816445847
352.299645308322 354.569529185405 358.779368389181 365.081658087249 373.694018073382 380.921890120732 381.993428127989 380.125868082035 378.875084289964 380.771070234151 383.179862239795 383.496967173513 384.067653872014 385.77535116288 387.068800362384 386.888973718415 387.234321984505 389.68084285045 393.103497255268 395.792040073084 396.883474002024 397.949913424548 399.995300587569 401.753254667415 402.745124375617 402.664838635543 399.586412644905 393.866612830266 386.504509504538 378.143028705302 369.849666498252 363.911296067368 360.524526248904 358.469069080012 357.234843640821 356.783792321545 356.297884519213 355.259812912207 353.694446551559 351.145374084796 347.092135731663 340.989679994327 334.33551368065 328.615634187876 325.028085644426 324.245564223432 324.478094213006 324.746826984512 323.78704029439 322.775334455686 321.543712562939 319.374191176668 316.367855757356 311.859841422286 305.55481098171 299.535024197311 294.799519794106 292.213019620716 291.647256707358 291.371746366797 290.700967923539 290.931078129449 292.229405071298 294.181655413973 295.737746644402 296.264366364927 296.212887478206 296.151145983561 296.112956010271 296.400944530434 296.67441493488 295.657125731757 294.318693739434 291.977644602254 288.958805642717 285.921013395066 282.540122730918 278.864309082098 275.505487007683 272.217479144077 270.608214557336 269.281286602496 267.660669838 267.025564666715 266.772802003787 265.905621694585 265.429550204975 266.209873578815 268.884634945943 272.501722822051 275.151560091098 277.134523748502 279.257203788604 280.95229886596 281.648049134494 281.95773370593 282.927596458921 284.411493341326 287.1106071737
355.869439715254 359.494402784628 364.169464160005 369.460761366826 375.492566142745 380.586313599775 382.494820074991 381.779806813344 380.697018645416 381.92003168269 383.677919341039 383.808209598633 383.84250457312 385.203347079176 386.457612700816 386.615481468637 388.150759372736 391.9331004225 396.331770662808 399.67326686872 400.793531551329 401.599842816397 403.091194969391 404.160497829217 404.605908712442 404.01270262148 401.035572674075 395.515379623395 388.129737310421 379.744714295353 371.330530609555 364.350908188525 358.997462526987 355.490518369948 352.563502296032 350.651519737408 349.392720592643 347.788042310598 345.297133786553 341.889582150032 337.32594185822 331.595831649663 324.896335647328 318.817535675085 314.8640920565 313.135848288569 312.401115557555 311.847544631614 310.560327332665 308.92359520928 307.589763250821 305.833936168399 304.062435478109 302.027326562922 299.507983702168 297.297471374264 296.394833139302 296.690405104365 297.146304045077 297.773733149686 297.424530768257 297.038326816596 298.25001617566 300.123415392999 300.976704579194 300.269974311328 299.848561436533 299.15460937345 298.751826485868 298.070636012065 297.328790327682 295.656316739797 294.649526155341 293.293257457411 291.270661500811 288.88999577411 285.857470876949 282.472294487822 278.806753019385 275.765630888691 273.145568161791 271.169481940432 269.180625805286 267.598589676031 266.023440397696 263.228106527198 261.428092376659 261.844933307883 263.99510840367 267.688182832904 270.678837460881 273.274244802244 275.305097027818 276.992257047892 277.965061285881 278.876730672181 279.900041008263 281.265745378502 283.699737100252
359.758885247606 364.316644886836 369.617549187192 373.966710881374 377.173119268787 380.137812358256 382.767110606399 383.82089679988 383.301623384143 383.54872531683 384.662522407671 385.124679331246 385.772891814727 387.125983439714 388.518173363857 389.143469057033 391.402798880379 396.169034208878 401.386707180135 404.838285791442 405.791071468877 406.743852086806 407.925900606903 408.754600706864 407.973623747475 406.208898668228 403.220246404971 398.217871008618 391.042684956424 382.773368427411 374.325188763568 366.667654880116 360.265905257209 355.308790786939 351.475296693427 348.725022192656 346.332814623573 343.522362146581 340.272232330782 336.393838593751 331.050401913843 325.075778487812 319.185966125212 313.716801337209 309.468535442075 307.143056612471 305.66920581907 303.989568893397 302.601157776456 300.80588783661 299.298992701093 298.373392863804 297.483128580223 296.908292760811 297.099360840273 297.761338063185 299.738077599034 302.44474731615 304.136352242202 305.104938815726 305.263282443017 304.54104185924 304.776869248173 305.666496101205 305.870849450828 304.839750980937 303.808649532052 302.777545104226 301.736896666898 300.689948403789 298.94840576556 296.290371388535 294.641605335733 293.637353327174 292.263861108233 289.899204129415 287.236434613887 285.166424342083 282.722253054567 280.026557029273 277.617571278156 274.329051718064 271.122528967297 268.817451154075 265.617026905062 261.728228251688 258.916862690379 258.412149024849 259.629035575588 263.056005110338 266.643889197357 269.322136050372 271.352990812566 273.03221553775 274.063400386495 275.094588213516 276.408486645208 278.305645766216 280.678643769427
